# .PCD v0.7 - Point Cloud Data file format
VERSION 0.7
FIELDS x y z label
SIZE 4 4 4 4
TYPE F F F U
COUNT 1 1 1 1
WIDTH 1297
HEIGHT 1
VIEWPOINT 0 0 0 1 0 0 0
POINTS 1297
DATA ascii
-0.14701036 0.56816518 0.44190806 15
-0.14072503 0.57034707 0.38848186 11
-0.14581987 0.58209926 0.42154935 13
-0.14386991 0.56344414 0.43913212 15
-0.13792528 0.55985403 0.38336277 11
-0.14623496 0.58563036 0.42342547 13
-0.14228082 0.55842996 0.43621951 15
-0.13847913 0.57051802 0.38903749 11
-0.14271107 0.57880306 0.42027327 13
-0.14279316 0.56867391 0.44263595 15
-0.13809964 0.57058758 0.38907039 11
-0.14152941 0.57541507 0.4184618 13
-0.14359303 0.57383245 0.4456206 15
-0.13698396 0.57445669 0.39095584 11
-0.13764128 0.56711274 0.41401315 13
-0.14047274 0.56909573 0.44283625 15
-0.13621192 0.57276291 0.39012766 11
-0.14076728 0.58275902 0.42235452 13
-0.13930811 0.56577128 0.44090098 15
-0.13161574 0.5607571 0.38425991 11
-0.13919382 0.58483934 0.42344514 13
-0.13738401 0.56611371 0.44106507 15
-0.13277583 0.56787789 0.38773781 11
-0.13956714 0.58837259 0.42532596 13
-0.13738132 0.56787974 0.44208252 15
-0.13201962 0.57350177 0.39048323 11
-0.1353267 0.57831931 0.4199473 13
-0.1362039 0.57161504 0.44421595 15
-0.13163826 0.57356757 0.39051521 11
-0.13644356 0.58531922 0.42367712 13
-0.13468848 0.56658405 0.44129243 15
-0.13047278 0.57742554 0.39239946 11
-0.13410699 0.58392119 0.42291626 13
-0.13091122 0.5584119 0.43652388 15
-0.12675999 0.56159592 0.38466716 11
-0.13371482 0.58398759 0.42294878 13
-0.13016225 0.55677563 0.43556944 15
-0.12536737 0.5636574 0.38567522 11
-0.1311422 0.58082616 0.42125022 13
-0.13165563 0.57238668 0.44459358 15
-0.12571922 0.56725395 0.38743237 11
-0.12711883 0.56353682 0.41202831 13
-0.13054119 0.56904805 0.44265255 15
-0.12705259 0.58347636 0.39535928 11
-0.12701181 0.57252973 0.41681212 13
-0.12753503 0.56425834 0.43984964 15
-0.12595139 0.58000284 0.39366317 11
-0.12912336 0.58474785 0.42332491 13
-0.12643914 0.56091529 0.43790674 15
-0.1201612 0.56085223 0.3843123 11
-0.12856369 0.59201306 0.42718869 13
-0.12558267 0.56633264 0.44102284 15
-0.12083784 0.56621957 0.38693509 11
-0.12536685 0.5781756 0.41980875 13
-0.12659539 0.57320881 0.44500381 15
-0.12136434 0.57890725 0.39313841 11
-0.12239107 0.57326579 0.41718274 13
-0.12533519 0.57692444 0.44713494 15
-0.12132277 0.58073747 0.39403367 11
-0.12269223 0.57680297 0.41906726 13
-0.12562884 0.58039486 0.44914207 15
-0.11871731 0.57749182 0.39245507 11
-0.12142923 0.58058006 0.42107475 13
-0.12095936 0.56705308 0.44138929 15
-0.11698744 0.57046455 0.38902363 11
-0.12272187 0.58933765 0.42574295 13
-0.12225464 0.57564068 0.44636238 15
-0.11575159 0.57429439 0.39090282 11
-0.11941953 0.58267307 0.42218491 13
-0.12062939 0.57764137 0.44750348 15
-0.11668863 0.58144081 0.39439589 11
-0.11671942 0.57054657 0.41571873 13
-0.11990746 0.57599288 0.44654471 15
-0.11454771 0.57993454 0.39366922 11
-0.11783745 0.58648455 0.4242135 13
-0.11904082 0.58138573 0.44965455 15
-0.112869 0.57289702 0.3902331 11
-0.11744365 0.58654177 0.42424357 13
-0.11541408 0.56436604 0.43978891 15
0.054873269 0.57435727 0.39693573 11
0.057145976 0.57772464 0.39873049 11
-0.10998013 0.56754637 0.38822749 11
-0.1170336 0.59520215 0.42950991 13
-0.11474019 0.57112885 0.44434723 15
-0.10991876 0.56937349 0.38912439 11
-0.11536753 0.58829135 0.42581838 13
-0.11625034 0.58143127 0.45032528 15
-0.10988833 0.58028555 0.39447933 11
-0.1115252 0.57811219 0.42038184 13
-0.11489632 0.58512515 0.45245758 15
-0.11012174 0.58388811 0.39624581 11
-0.11268604 0.58687979 0.42506561 13
-0.11480861 0.58688897 0.45347926 15
-0.10696447 0.57705152 0.39291301 11
-0.11071433 0.58714896 0.42521206 13
-0.11342354 0.59058017 0.455612 15
-0.10597489 0.57355219 0.39120269 11
-0.11274527 0.6011517 0.43269271 13
-0.10376928 0.57202977 0.39047292 11
-0.10953742 0.59444231 0.42911318 13
-0.10516523 0.5827384 0.3957195 11
-0.10765605 0.5857718 0.42448261 13
-0.10438944 0.59009826 0.39934069 11
-0.10772381 0.59824413 0.43115148 13
-0.10341866 0.58659381 0.39762828 11
-0.10761196 0.60004103 0.43211278 13
-0.098745741 0.56904531 0.38905239 11
-0.10657216 0.60551846 0.43504652 13
-0.10119575 0.58687383 0.39778697 11
-0.10701587 0.6108079 0.43787399 13
-0.10007667 0.59245002 0.40053809 11
-0.105245 0.6128065 0.43895179 13
-0.096632652 0.58561444 0.3972162 11
-0.094358236 0.57320195 0.39114115 11
-0.094442897 0.58768004 0.39825696 11
-0.09037105 0.59175205 0.40031087 11
-0.073392831 0.59150636 0.4005878 11
0.026289051 0.56398928 0.3904672 11
0.026804214 0.58508134 0.42802402 13
0.025904166 0.578385 0.45222366 15
0.026940335 0.5693351 0.39313945 11
0.02710944 0.58329976 0.42708185 13
0.025957121 0.57146686 0.44818762 15
0.028837958 0.56921613 0.39317712 11
0.029072223 0.58317667 0.4271208 13
0.028629195 0.58513039 0.45631522 15
0.029941184 0.59193748 0.43188003 13
0.028567739 0.57648915 0.45126721 15
0.03111469 0.56906635 0.39322039 11
0.032032799 0.59356272 0.43286809 13
0.029944848 0.56602311 0.44523689 15
0.032021049 0.57798415 0.39766973 11
0.032840326 0.60056281 0.43667731 13
0.030330518 0.56599689 0.44524398 15
0.033609372 0.57428187 0.39592522 11
0.034200795 0.59164917 0.43195876 13
0.032766435 0.57620496 0.45134485 15
0.034104008 0.57604307 0.39682057 11
0.033730634 0.57757038 0.42436126 13
0.03326378 0.57789934 0.45236313 15
0.036478981 0.58795565 0.4301005 13
0.035792638 0.5846349 0.45644474 15
0.036641221 0.57765412 0.39775041 11
0.03745285 0.5967052 0.43486053 13
0.036414642 0.58804858 0.45847437 15
0.037941903 0.56857091 0.39333752 11
0.039216548 0.59304148 0.43299136 13
0.038572833 0.57211584 0.3951211 11
0.0391258 0.5859893 0.42919445 13
0.041097693 0.5858323 0.42922446 13
0.04278408 0.60334766 0.43873927 13
0.042791139 0.57357061 0.39607045 11
0.043312725 0.57532448 0.39696479 11
0.045519803 0.57873046 0.39876869 11
0.049829595 0.57474041 0.39704621 11
0.052459083 0.57808703 0.39884952 11
-0.0014394764 0.605479 0.43788591 13
-0.0010970678 0.58962405 0.42936146 13
0.00087271439 0.58781934 0.42847392 13
2.4489755e-05 0.58971429 0.45778057 15
0.0020289992 0.58105206 0.39798462 11
0.0013099207 0.59309155 0.43133229 13
0.00035780051 0.57934606 0.45173502 15
0.0034213834 0.60360289 0.43708569 13
0.0023118367 0.57756925 0.45078424 15
0.0042565791 0.57382226 0.39450592 11
0.003806191 0.60183144 0.43614867 13
0.0026508602 0.57237971 0.44776639 15
0.0061098048 0.57018232 0.39278704 11
0.0055377483 0.58241016 0.42576665 13
0.0047645606 0.58440578 0.45489278 15
0.0066412864 0.5791316 0.3972339 11
0.0060398239 0.58943892 0.42957458 13
0.0050878325 0.57921535 0.45187408 15
0.0085697882 0.57906908 0.39728808 11
0.0080220299 0.58937472 0.42963028 13
0.0070584747 0.57915151 0.45192945 15
0.0088811899 0.575472 0.39552394 11
0.0085901199 0.59816104 0.4343881 13
0.0072007179 0.5653314 0.44385871 15
0.010840956 0.57719523 0.39646363 11
0.01052047 0.5945695 0.43254367 13
0.0093488591 0.57561636 0.4499732 15
0.011313439 0.58076429 0.39824903 11
0.010550098 0.57871705 0.42400834 13
0.0098171262 0.57905281 0.4520044 15
0.012778698 0.58919781 0.42975768 13
0.011787393 0.57897568 0.45205611 15
0.013222964 0.59094107 0.43071762 13
0.011641951 0.55825573 0.43993959 15
0.015114466 0.56984824 0.39302847 11
0.015623456 0.60845417 0.44026369 13
0.013882576 0.57370567 0.44908115 15
0.015608995 0.57341391 0.39481378 11
0.015760321 0.59964025 0.43552437 13
0.014273194 0.57368845 0.44909087 15
0.017456532 0.57153565 0.39397246 11
0.017055189 0.57844102 0.42417324 13
0.016283134 0.57532406 0.45014954 15
0.017261127 0.57314587 0.42133236 13
0.016268203 0.56323224 0.44308269 15
0.020067031 0.57678992 0.39669374 11
0.019642934 0.58183819 0.42613149 13
0.018110262 0.55795884 0.44009742 15
0.020094525 0.56781787 0.3922613 11
0.020239504 0.58709377 0.4289912 13
0.018555829 0.55966383 0.44111726 15
0.021910368 0.56592798 0.3914156 11
0.021770855 0.57644045 0.42333356 13
0.021029497 0.57335621 0.44924968 15
0.022757011 0.57664829 0.39675441 11
0.021708494 0.5658704 0.41763985 13
0.021276161 0.56988692 0.44723591 15
0.024845926 0.58012038 0.39857304 11
0.024099909 0.57631063 0.42338413 13
0.022829521 0.56115955 0.44222125 15
0.025062302 0.57651848 0.39680409 11
0.025388768 0.59562379 0.43384823 13
0.023212049 0.5611375 0.44222936 15
-0.0031168531 0.58074987 0.39841855 11
-0.0040026694 0.60683763 0.43937451 13
-0.0027299139 0.58074331 0.39843106 11
0.036962993 0.56575263 0.39747283 11
0.038653761 0.59693116 0.44115803 13
0.037342172 0.56572354 0.39747882 11
0.039296433 0.60039717 0.44309154 13
0.040267803 0.57981825 0.40472326 11
0.040824067 0.59324569 0.43926802 13
0.042236123 0.60719723 0.4469834 13
0.042325567 0.57606858 0.40295294 11
0.043258235 0.58315539 0.40656641 11
0.043785784 0.56519604 0.39757156 11
0.044738829 0.57227993 0.40118501 11
0.049967367 0.57897502 0.40484902 11
0.057262201 0.58542848 0.4085224 11
0.061781667 0.57955873 0.4058516 11
-0.15803185 0.57445961 0.39738905 11
-0.15898703 0.57977319 0.40003684 11
-0.16184841 0.58058023 0.42812988 13
-0.15969431 0.59064746 0.40544689 11
-0.16032635 0.58269906 0.42924997 13
-0.16383603 0.58563006 0.45984969 15
-0.15578201 0.57676119 0.39851677 11
-0.16124979 0.58792102 0.43208614 13
-0.15730646 0.56219864 0.44597515 15
-0.15124883 0.56667072 0.39347008 11
-0.15969746 0.59003913 0.43320718 13
-0.15581404 0.5642702 0.4471513 15
-0.15216887 0.5719887 0.39612043 11
-0.15800181 0.58497411 0.430444 13
-0.15585905 0.56602877 0.44818196 15
-0.15111089 0.57586706 0.39804345 11
-0.15431803 0.57850367 0.42689249 13
-0.15605056 0.57482511 0.45333746 15
-0.15157863 0.57944036 0.39982367 11
-0.15350132 0.5768646 0.42599469 13
-0.15438354 0.56985641 0.45038906 15
-0.14922115 0.57807028 0.39913005 11
-0.15239166 0.5806818 0.42804441 13
-0.14949979 0.55845588 0.44360092 15
-0.14547753 0.56414634 0.39218304 11
-0.15325661 0.58591121 0.43088484 13
-0.14953548 0.56021363 0.4446317 15
-0.14400375 0.56626081 0.39322913 11
-0.1496231 0.57941711 0.4273248 13
-0.15091784 0.57405901 0.45277601 15
-0.14527673 0.57333767 0.3967573 11
-0.14840661 0.5760538 0.42548966 13
-0.15093672 0.57581854 0.45380789 15
-0.14347461 0.57367843 0.39692047 11
-0.14576162 0.57296008 0.42378372 13
-0.14786702 0.57111144 0.45098549 15
-0.14146471 0.56674093 0.39345899 11
-0.14699876 0.57991332 0.42756242 13
-0.14261408 0.55095375 0.4390595 15
-0.13876662 0.56358606 0.39187983 11
-0.14664127 0.58716214 0.43148381 13
-0.14312442 0.56142586 0.44521219 15
-0.13758977 0.56014824 0.3901642 11
-0.14344843 0.57518506 0.42496324 13
-0.14433445 0.56824505 0.44923583 15
-0.13808034 0.57101768 0.39558098 11
-0.14071606 0.57209444 0.42326143 13
-0.14239025 0.56859922 0.44940808 15
-0.13848479 0.57459617 0.397365 11
-0.13993643 0.57044166 0.42235839 13
-0.14043339 0.56191611 0.4454506 15
-0.13540098 0.56967205 0.39490628 11
-0.14149244 0.586299 0.43096608 13
-0.13696402 0.55550253 0.44162542 15
-0.13192853 0.55569112 0.38793311 11
-0.14109647 0.58636904 0.43100056 13
-0.13735433 0.55894887 0.44365561 15
-0.13159104 0.5630452 0.39159945 11
-0.13759363 0.57981688 0.42741936 13
-0.13695994 0.56604606 0.44781739 15
-0.1346316 0.57892543 0.39951929 11
-0.13682237 0.57815981 0.42651477 13
-0.13733013 0.56949455 0.44984892 15
-0.13194846 0.57574135 0.39793131 11
-0.13524222 0.5802213 0.42762095 13
-0.13463554 0.56644589 0.44801667 15
-0.1300717 0.56877333 0.39445627 11
-0.13522296 0.58201402 0.42859322 13
-0.13238738 0.55805266 0.44305137 15
-0.12714878 0.56375974 0.39203864 11
-0.13260756 0.57883066 0.42693585 13
-0.13019431 0.55661994 0.44226563 15
-0.12640506 0.56206322 0.39119273 11
-0.13111742 0.57371449 0.42414999 13
-0.13273898 0.5702256 0.45030078 15
-0.12777151 0.57821602 0.39925385 11
-0.12809536 0.56885022 0.42149231 13
-0.13078834 0.57054716 0.45046425 15
-0.12738504 0.57827908 0.39928603 11
-0.12878951 0.57409763 0.42434487 13
-0.13039809 0.57061082 0.45049673 15
-0.12403558 0.57154548 0.39593121 11
-0.12826474 0.58132732 0.42826813 13
-0.12491058 0.55397826 0.44064441 15
-0.12153543 0.56103718 0.39068982 11
-0.12857783 0.58484864 0.43018192 13
-0.12594101 0.56081861 0.44468161 15
-0.12046557 0.56484073 0.39259276 11
-0.12463453 0.57476121 0.424687 13
-0.12621993 0.57127821 0.4508408 15
-0.12216711 0.57547534 0.39789957 11
-0.12389942 0.5730918 0.42377743 13
-0.12721384 0.57812303 0.45488063 15
-0.12228878 0.58635348 0.40333402 11
-0.12298466 0.57858485 0.42675927 13
-0.1245563 0.57503504 0.45303562 15
-0.11883867 0.57054085 0.39544657 11
-0.12293351 0.58037591 0.4277325 13
-0.12076803 0.55812567 0.44304186 15
-0.11559357 0.56377143 0.39207777 11
-0.12130657 0.58240461 0.42883152 13
-0.12019293 0.56520569 0.44720656 15
-0.11554939 0.56559241 0.39298815 11
-0.12157944 0.58592814 0.43074742 13
-0.1214705 0.5737533 0.45225263 15
-0.11594897 0.5782302 0.39930367 11
-0.11796241 0.57755452 0.4261899 13
-0.11983582 0.57574183 0.45341107 15
-0.11588879 0.58005232 0.400215 11
-0.11757206 0.57761151 0.42622054 13
-0.11846358 0.57070249 0.45043117 15
-0.11298811 0.57503259 0.39772201 11
-0.11722412 0.58656394 0.43108925 13
-0.11554959 0.56588483 0.44757134 15
-0.11004726 0.56095469 0.39069992 11
-0.11778719 0.59182328 0.43395007 13
-0.11739929 0.57783931 0.45463014 15
-0.10942522 0.56828862 0.39437225 11
-0.11390415 0.58169407 0.42844114 13
-0.11636606 0.58321947 0.45779592 15
-0.1102962 0.57541168 0.39792934 11
-0.1141372 0.58521926 0.43035901 13
-0.11847074 0.59688151 0.46586341 15
-0.11021522 0.58628595 0.40337029 11
-0.11123809 0.58028275 0.42767641 13
-0.10921155 0.58280212 0.40163484 11
-0.11268385 0.59075296 0.43337244 13
-0.10486118 0.56890899 0.39471754 11
-0.11249343 0.60144162 0.43919116 13
-0.10627606 0.5795756 0.40004405 11
-0.11118892 0.59628409 0.4363867 13
-0.10463251 0.58159864 0.40107116 11
-0.10711854 0.58438212 0.42991868 13
-0.10482877 0.5851891 0.40286681 11
-0.10760236 0.58964676 0.43278393 13
-0.008300812 0.58913696 0.40711755 11
-0.0063318312 0.58911496 0.40718475 11
-0.0035758466 0.58192831 0.40368083 11
-0.002459056 0.60065228 0.44113815 13
-0.0012824771 0.57116687 0.3983615 11
-0.0020578471 0.5988903 0.44019023 13
0.00075623975 0.58899003 0.40741396 11
-7.5783981e-05 0.59183145 0.43640944 13
0.0011499989 0.58898097 0.40742609 11
0.00034649257 0.59533018 0.43834388 13
0.0029624086 0.57464278 0.40029016 11
0.0023404807 0.59352684 0.43744373 13
0.0012801538 0.56925434 0.45173907 15
0.0028314022 0.60228509 0.44226202 13
0.0017613635 0.57955915 0.45788181 15
0.0051644384 0.56743467 0.39675951 11
0.0047465549 0.59346014 0.43751469 13
0.0036808164 0.5743466 0.45487407 15
0.0057096411 0.57813942 0.40216875 11
0.0051227747 0.59169465 0.43656483 13
0.0040738452 0.57433492 0.45488545 15
0.0078433109 0.58879358 0.40762299 11
0.0069089355 0.57935828 0.42989042 13
0.0060941316 0.57771099 0.45698586 15
0.0081682364 0.58520895 0.4058342 11
0.0073324121 0.58109874 0.43086305 13
0.006173355 0.55879128 0.44575226 15
-0.16405357 0.58789128 0.40412733 11
-0.16366093 0.58797455 0.40416539 11
0.0097562503 0.57086271 0.39867988 11
0.0095815584 0.59681565 0.43956524 13
0.0083125765 0.5724805 0.4539763 15
0.010056321 0.56727767 0.3968901 11
0.009678931 0.58277595 0.43188167 13
0.0088457214 0.5793404 0.45807648 15
0.012049573 0.57077616 0.3987411 11
0.01156172 0.5791952 0.43001017 13
0.010417887 0.56208169 0.44790372 15
0.012767269 0.58325809 0.40505281 11
0.011908527 0.57742679 0.4290584 13
0.011055324 0.57237613 0.45404926 15
0.014227999 0.57068676 0.39879721 11
0.014399185 0.60013539 0.44161332 13
0.012517982 0.55855542 0.44591486 15
0.014392429 0.56353033 0.39520523 11
0.015113421 0.61063355 0.44739655 13
0.013046145 0.56369311 0.44899276 15
0.016340408 0.56523097 0.39615256 11
0.016602749 0.59301823 0.43782455 13
0.015301188 0.57391375 0.45517784 15
0.016964195 0.57235223 0.39976403 11
0.016304294 0.57197225 0.42628631 13
0.01580441 0.57733101 0.45723319 15
0.019331863 0.58117676 0.40431598 11
0.01797072 0.56136155 0.4205603 13
0.017531302 0.56692576 0.4511447 15
0.019652298 0.57937306 0.40342432 11
0.019201318 0.58411801 0.43308169 13
0.017421462 0.55316728 0.44296914 15
0.020700974 0.55786437 0.392658 11
0.02131867 0.58751953 0.43505198 13
0.019792987 0.56508934 0.45017487 15
0.021376198 0.56498051 0.39627001 11
0.021571564 0.58399522 0.43313557 13
0.020663079 0.57708812 0.45734614 15
0.023835935 0.5773626 0.40261862 11
0.02323507 0.57688171 0.42932767 13
0.022637714 0.57697982 0.45738935 15
0.024551 0.58447522 0.40623108 11
0.023783462 0.58036214 0.43126166 13
0.022956874 0.57524079 0.45637441 15
0.0263304 0.58079475 0.40446964 11
0.025746731 0.58024776 0.43130273 13
0.024274854 0.56139529 0.44822767 15
0.025651306 0.55937278 0.39366329 11
0.026825542 0.59423089 0.43901429 13
0.024989426 0.56823736 0.45232961 15
0.028168486 0.57352751 0.40090898 11
0.028804313 0.59586525 0.44001511 13
0.026994042 0.57155681 0.45441347 15
0.028743526 0.57706892 0.40271911 11
0.028745933 0.58708763 0.43520764 13
0.027918553 0.5818274 0.46056297 15
0.030926861 0.59045911 0.43717188 13
0.029436648 0.57312077 0.45548218 15
0.030652117 0.56978858 0.39915735 11
0.031524133 0.59393257 0.43910572 13
0.029255595 0.56280208 0.4493469 15
0.032344487 0.56609434 0.39738882 11
0.033322185 0.59029651 0.43721551 13
0.031183919 0.56267059 0.44938186 15
0.032505535 0.56250399 0.39559236 11
0.034038749 0.5955171 0.44011247 13
0.033411078 0.59351337 0.46781874 15
0.035309531 0.57662123 0.40283817 11
0.035271209 0.58312941 0.43340319 13
0.035763595 0.59851193 0.47092557 15
0.03615959 0.58371872 0.4064514 11
0.035440609 0.57960242 0.43148291 13
0.035518475 0.58819497 0.46478835 15
-0.074205719 0.60286164 0.41207421 11
-0.10157277 0.57661009 0.39851645 11
-0.10775964 0.60210174 0.43947345 13
-0.10061511 0.57311618 0.39677685 11
-0.098698728 0.57335365 0.39691508 11
-0.10054997 0.58757657 0.40401682 11
-0.099134758 0.59135848 0.40592584 11
-0.097649731 0.58431405 0.40241468 11
-0.09489695 0.57922214 0.39989623 11
-0.096104309 0.58990848 0.40523466 11
-0.096735165 0.60787499 0.41422743 11
-0.095811844 0.60437155 0.41248384 11
-0.09430223 0.60814387 0.41439372 11
-0.092131533 0.5957619 0.40821797 11
-0.081061684 0.60406697 0.41255167 11
-0.16216171 0.58098823 0.40058026 11
-0.16358617 0.58804327 0.40409571 11
-0.15714601 0.57101274 0.39558479 11
-0.15988961 0.58330446 0.40171218 11
-0.16586614 0.59603834 0.43645406 13
-0.15882251 0.58719873 0.4036392 11
-0.15813148 0.57417732 0.42452174 13
-0.16252171 0.58064222 0.45680419 15
-0.15579148 0.57680333 0.39845189 11
-0.15774332 0.5742569 0.42455858 13
-0.15862194 0.56728667 0.44889334 15
-0.15342908 0.57544804 0.39776248 11
-0.15927032 0.58837104 0.43220761 13
-0.15668075 0.56768107 0.44907641 15
-0.15044568 0.56504172 0.39257032 11
-0.16017039 0.59359664 0.43504494 13
-0.15542978 0.56439739 0.44712451 15
-0.1477 0.56192225 0.39100295 11
-0.15517794 0.58198273 0.42869493 13
-0.15349805 0.5647831 0.44730479 15
-0.15116179 0.57773453 0.39888588 11
-0.15350728 0.57691109 0.42592955 13
-0.15608446 0.57663548 0.45430422 15
-0.14850423 0.57459146 0.39730856 11
-0.15293609 0.58242333 0.42890218 13
-0.15129444 0.56521618 0.44750848 15
-0.1460198 0.56591672 0.3929809 11
-0.15380113 0.58765316 0.43174195 13
-0.14923392 0.55855745 0.44356254 15
-0.11651876 0.56916654 0.39459497 11
-0.12155669 0.58424741 0.429647 13
-0.11710152 0.5500384 0.43806094 15
-0.11480653 0.56216401 0.391105 11
-0.12116209 0.58430648 0.42967829 13
-0.12071674 0.57047337 0.45012316 15
-0.1145616 0.57127041 0.39565551 11
-0.11918852 0.584598 0.42983368 13
-0.11974717 0.57585859 0.45328617 15
-0.11515801 0.57662374 0.39832711 11
-0.1174886 0.57772136 0.42609474 13
-0.12065761 0.58271289 0.45732987 15
-0.1119486 0.56983507 0.39495295 11
-0.11617763 0.58147174 0.42813233 13
-0.11738488 0.57620013 0.45347005 15
-0.11252565 0.57518983 0.39762568 11
-0.11738264 0.59020048 0.4328776 13
-0.11667168 0.57455611 0.45249677 15
-0.10883377 0.56483912 0.39247555 11
-0.11613825 0.59393495 0.4349083 13
-0.11576779 0.57991892 0.45565102 15
-0.10908177 0.56842721 0.39426759 11
-0.11605059 0.59572631 0.43588242 13
-0.11787578 0.59358245 0.46371508 15
-0.10902435 0.57929981 0.39970389 11
-0.11127197 0.58037692 0.42753983 13
-0.10986195 0.58642709 0.40326151 11
-0.11118633 0.58216643 0.42851335 13
-0.10610005 0.57607317 0.3981131 11
-0.11222827 0.59980148 0.43810475 13
-0.10451738 0.56904596 0.39461136 11
-0.1115239 0.59811771 0.43719038 13
-0.10408292 0.57814616 0.39916721 11
-0.10862342 0.59316748 0.43450493 13
-0.10486703 0.5852778 0.40272799 11
-0.10793004 0.59148097 0.43358934 13
-0.10348595 0.58906889 0.40463772 11
-0.1082326 0.60564595 0.44129831 13
-0.10166336 0.58026171 0.40024823 11
-0.099724315 0.58050179 0.40038788 11
-0.099336408 0.58054918 0.40041563 11
-0.097943261 0.58432841 0.4023225 11
-0.09836974 0.58969367 0.40500373 11
-0.09746705 0.59701848 0.40868166 11
-0.095475696 0.58642185 0.40339911 11
-0.094556242 0.59374189 0.40707627 11
0.052405018 0.58597857 0.40838552 11
0.057659447 0.58724618 0.40933406 11
0.059644144 0.58703721 0.40934935 11
0.064357869 0.58651829 0.40937924 11
0.021155175 0.56862491 0.39798272 11
0.020973131 0.57882184 0.43015683 13
0.019802991 0.56515276 0.45009482 15
0.021234723 0.56146806 0.39438862 11
0.021509185 0.58230454 0.4320904 13
0.019983025 0.55998069 0.44703451 15
0.023683222 0.57385159 0.4007352 11
0.02347845 0.58219647 0.43213347 13
0.022423992 0.57189351 0.45423824 15
0.024067435 0.57382989 0.40074342 11
0.023398213 0.57166606 0.42636657 13
0.023270046 0.58217227 0.46038538 15
0.026427662 0.58263522 0.40528822 11
0.025587194 0.57680649 0.42929509 13
0.024935715 0.57519042 0.45633405 15
0.026550483 0.57726175 0.40259334 11
0.026234945 0.5820359 0.43219113 13
0.02516445 0.57173401 0.45429558 15
0.027345946 0.55574656 0.39181927 11
0.029118061 0.59942073 0.44185853 13
0.026416816 0.55788469 0.44614756 15
0.027718622 0.55572295 0.39182654 11
0.029337877 0.59589404 0.43994075 13
0.027512949 0.57158858 0.45434231 15
0.031206507 0.58412302 0.40628096 11
0.030860098 0.58701229 0.43516439 13
0.029659327 0.5748927 0.45642653 15
0.031802703 0.58766198 0.40809068 11
0.031257086 0.58698583 0.43517175 13
0.029765051 0.56971979 0.45336327 15
0.033334531 0.58039922 0.40452093 11
0.033661943 0.59384912 0.43905991 13
0.031004937 0.55758017 0.44623306 15
0.032627814 0.56255168 0.39551443 11
0.034275688 0.59732026 0.44099316 13
0.032824561 0.5815649 0.46057099 15
0.034512993 0.56241649 0.39554676 11
0.035734855 0.58842933 0.43621185 13
0.035680275 0.59513986 0.46879509 15
0.036053516 0.58020419 0.40456754 11
0.035229266 0.57440698 0.4285129 13
0.038483392 0.5871827 0.40820512 11
0.037885122 0.58475322 0.43432409 13
0.038137127 0.57646644 0.40280193 11
0.039477956 0.60220915 0.44396335 13
0.03929368 0.56563157 0.39742145 11
0.041762933 0.60554588 0.44592112 13
0.039932802 0.56916213 0.39923036 11
0.041995723 0.57257569 0.40105954 11
0.045552056 0.58660597 0.40830663 11
0.044220507 0.56521994 0.39748952 11
0.047608275 0.58284032 0.40653217 11
-0.14406154 0.56630152 0.39314926 11
-0.15174986 0.58805662 0.43191838 13
-0.14684655 0.55726177 0.44273666 15
-0.14285642 0.56287128 0.39143732 11
-0.14887689 0.57781798 0.42634368 13
-0.14893484 0.56744343 0.4487471 15
-0.14504839 0.58075064 0.40034461 11
-0.14488852 0.56958669 0.42184207 13
-0.1473995 0.56949663 0.44991916 15
-0.14466035 0.5808233 0.40037951 11
-0.14693925 0.57998091 0.42749119 13
-0.1453898 0.56282532 0.44596797 15
-0.14071523 0.57241589 0.39618167 11
-0.1457803 0.58378744 0.429539 13
-0.1418653 0.55643457 0.44215208 15
-0.13833387 0.56371754 0.39184377 11
-0.14498664 0.58213848 0.42863774 13
-0.14228116 0.55987924 0.44418031 15
-0.13684171 0.56581587 0.39288554 11
-0.14183854 0.57732892 0.42600125 13
-0.14075741 0.56191671 0.44534755 15
-0.13803527 0.57290411 0.39641881 11
-0.14066307 0.57395375 0.42416173 13
-0.14154832 0.56705153 0.44837457 15
-0.13573226 0.57149029 0.39571092 11
-0.13756143 0.56912905 0.42151925 13
-0.138063 0.56064022 0.44455144 15
-0.13535014 0.57155782 0.39574414 11
-0.14065045 0.58471292 0.42999035 13
-0.13729405 0.55901843 0.44358653 15
-0.13115476 0.56134981 0.39065316 11
-0.13867541 0.58505893 0.43016121 13
-0.13575995 0.56104434 0.44475088 15
-0.13115866 0.56317228 0.39156163 11
-0.13714235 0.579952 0.42738095 13
-0.13537596 0.56111091 0.44478393 15
-0.13076998 0.57052904 0.39522937 11
-0.13443522 0.57683623 0.42567143 13
-0.13420153 0.56482416 0.44694689 15
-0.13225265 0.57938647 0.39964548 11
-0.13367277 0.57517624 0.42476594 13
-0.13344312 0.56319797 0.44598037 15
-0.12884752 0.57267433 0.39630038 11
-0.13319679 0.58241212 0.42868686 13
-0.12895063 0.55167186 0.4391439 15
-0.12590197 0.56042063 0.3901915 11
-0.13426715 0.58938724 0.43247685 13
-0.13076481 0.56189317 0.44517571 15
-0.12438674 0.56249017 0.39122602 11
-0.12975451 0.57761675 0.42606533 13
-0.12956138 0.56559795 0.44733739 15
-0.12436971 0.56431222 0.39213514 11
-0.12792717 0.57076639 0.42233863 13
-0.13132671 0.57582605 0.4533729 15
-0.12365717 0.56988347 0.39491674 11
-0.12646708 0.57278842 0.42342877 13
-0.12700176 0.56425959 0.4465189 15
-0.12398196 0.57346785 0.39670482 11
-0.12819724 0.58322752 0.42910242 13
-0.12520605 0.55754048 0.44254628 15
-0.118244 0.55438143 0.38719407 11
-0.12726904 0.58872992 0.43208563 13
-0.12572539 0.56971443 0.44971293 15
-0.11891142 0.55972791 0.38986105 11
-0.12548678 0.58186966 0.4283545 13
-0.12464423 0.56638283 0.4477413 15
-0.12112489 0.58118182 0.400565 11
-0.12113675 0.57005322 0.421924 13
-0.12304685 0.56837922 0.44889975 15
-0.12005766 0.57771343 0.39883718 11
-0.12346728 0.58396506 0.4294861 13
-0.12231898 0.56674147 0.44792879 15
-0.0013172056 0.59271598 0.40898913 11
-0.0021661336 0.60427266 0.44290823 13
-0.00098337582 0.57841432 0.40181264 11
-0.0018099981 0.58672148 0.43331715 13
0.0007825733 0.57122862 0.39827415 11
0.00014812245 0.60246909 0.44202039 13
0.0011934863 0.57479298 0.4000836 11
0.00047342118 0.5901804 0.43530867 13
0.0033132907 0.5818879 0.40374133 11
0.002657423 0.59714383 0.43921575 13
0.0016739959 0.58312297 0.45976683 15
0.0037454111 0.58545029 0.40555102 11
0.0030044073 0.59187114 0.43634531 13
0.0020085175 0.57623458 0.45569304 15
0.0053764493 0.56395984 0.39481771 11
0.0051259361 0.60058349 0.44120878 13
0.0038710763 0.56758231 0.45064288 15
0.0059241108 0.57466578 0.40022415 11
0.0054036416 0.59180236 0.4364154 13
0.0043507102 0.57444763 0.45474052 15
0.0077108266 0.56746066 0.39668098 11
0.0072155064 0.58121729 0.43070501 13
0.0062305988 0.56922817 0.45173094 15
0.0083721597 0.58173585 0.40388712 11
0.0075761788 0.57945055 0.42975476 13
0.0065316912 0.56405801 0.44867638 15
0.010119854 0.57810032 0.40213811 11
0.0097948611 0.59691995 0.43941879 13
0.0082426611 0.55883789 0.44566032 15
0.010256615 0.56737155 0.39675081 11
0.010081608 0.59164518 0.43654552 13
0.0087691648 0.56569916 0.44975856 15
0.0121089 0.56551325 0.39590138 11
0.012035999 0.5898155 0.435637 13
0.010871903 0.57249939 0.45389843 15
0.0128273 0.57799661 0.40220985 11
0.012069733 0.57577491 0.42795485 13
0.011519583 0.5827949 0.46004152 15
0.014760978 0.57791609 0.40225929 11
0.014478876 0.59146941 0.43665999 13
0.013126057 0.56896544 0.45191407 15
0.015036965 0.5743289 0.40046903 11
0.015455035 0.61073291 0.44724917 13
0.013367415 0.56379384 0.44885686 15
0.016531538 0.56174767 0.39421549 11
0.01699312 0.59486723 0.43864298 13
0.015407982 0.56714284 0.45094928 15
0.017281175 0.57243949 0.39962545 11
0.016684663 0.57381845 0.42710981 13
0.015740199 0.5654068 0.44993618 15
0.019604707 0.58305448 0.40507248 11
0.018691055 0.57547683 0.42811784 13
0.017861314 0.5704661 0.45304987 15
0.020063788 0.58481956 0.40598184 11
0.019080468 0.57545727 0.42812684 13
0.017749032 0.55670565 0.44487774 15
-0.07887847 0.60429186 0.41264561 11
-0.073458597 0.60295326 0.41207415 11
-0.071426719 0.60311472 0.412195 11
-0.17150436 0.60841137 0.41431823 11
-0.16583985 0.5949024 0.4075602 11
-0.16544275 0.59498662 0.40759861 11
-0.16076998 0.58493865 0.40256941 11
-0.15546639 0.56583059 0.39303485 11
-0.15533738 0.57320487 0.39669815 11
-0.16257681 0.59128332 0.43387279 13
-0.16344191 0.58396995 0.45881572 15
-0.15847367 0.58725053 0.40370104 11
-0.15866373 0.57765508 0.42644832 13
-0.15997693 0.57229489 0.45189813 15
-0.15477459 0.58066112 0.40040061 11
-0.15844592 0.58491158 0.43036571 13
-0.15888433 0.5760541 0.45407102 15
-0.15135382 0.56850863 0.39433688 11
-0.15761824 0.58327597 0.42946932 13
-0.15331353 0.55596298 0.442177 15
-0.14774138 0.56189507 0.3910265 11
-0.15778281 0.59225076 0.43432289 13
-0.15311298 0.56307119 0.44633371 15
-0.14736535 0.56196946 0.3910614 11
-0.15567918 0.58546412 0.43062389 13
-0.15527654 0.5732407 0.4523387 15
-0.14801039 0.57283658 0.39647055 11
-0.15159939 0.57726461 0.42613375 13
-0.1528966 0.57194209 0.45152432 15
-0.14930683 0.5799107 0.39999652 11
-0.14953202 0.57046962 0.42243099 13
-0.151669 0.56865132 0.44956934 15
-0.14364024 0.56452543 0.39231473 11
-0.15174031 0.58802938 0.43195876 13
-0.14683425 0.55723435 0.44277522 15
-0.144502 0.5698511 0.39496896 11
-0.15051791 0.58466721 0.43012431 13
-0.14727598 0.56067675 0.44480205 15
-0.14178093 0.56670731 0.39339358 11
-0.14732151 0.57988077 0.42749554 13
-0.14738719 0.56946886 0.44995829 15
-0.14221473 0.57028311 0.39517543 11
-0.14530572 0.57307309 0.4237873 13
-0.14699766 0.56954193 0.44999334 15
-0.14110912 0.57414436 0.3970947 11
-0.1445694 0.57859683 0.42676955 13
-0.14265208 0.55978155 0.44418448 15
-0.13710211 0.56846827 0.36821255 9
-0.13752735 0.56018543 0.39013276 11
-0.14497708 0.58211178 0.4286772 13
-0.14067516 0.55310321 0.44022954 15
-0.13486399 0.55701762 0.38854849 11
-0.14222275 0.57902509 0.42697716 13
-0.13995928 0.5585131 0.44339022 15
-0.13645619 0.5658595 0.39295676 11
-0.14300944 0.5842638 0.42982265 13
-0.14153601 0.56702417 0.44841304 15
-0.13583992 0.57144529 0.39573905 11
-0.13921702 0.57597727 0.42529738 13
-0.13971239 0.56735033 0.44857249 15
-0.13545781 0.57151294 0.39577228 11
-0.13844141 0.5743224 0.42439365 13
-0.13855319 0.56403995 0.44660944 15
-0.13116041 0.56132382 0.39068863 11
-0.136777 0.5764063 0.42550784 13
-0.13500141 0.55763447 0.44278893 15
-0.12964593 0.55611712 0.38809213 11
-0.13828416 0.58509928 0.43023232 13
-0.13499826 0.55939156 0.44382074 15
-0.12778386 0.55643696 0.38825127 11
-0.13556026 0.58198667 0.42852387 13
-0.1334563 0.56141222 0.44498387 15
-0.13151301 0.57584316 0.39792812 11
-0.13367642 0.57514864 0.42480221 13
-0.13456009 0.56824505 0.44901472 15
-0.13154157 0.58494437 0.40246743 11
-0.1307466 0.57027489 0.42213899 13
-0.13199921 0.56516719 0.44716915 15
-0.12895195 0.57445246 0.39723602 11
-0.1325589 0.58070302 0.42780724 13
-0.13014968 0.55845982 0.4432013 15
-0.12486619 0.56420654 0.39212939 11
-0.1313183 0.58448315 0.42985073 13
-0.12823774 0.55877525 0.44336104 15
-0.12592769 0.57131076 0.39567253 11
-0.1305639 0.5828191 0.42894363 13
-0.13000971 0.56900197 0.44939667 15
-0.12330891 0.56809622 0.39407349 11
-0.12717879 0.57622004 0.42534497 13
-0.12770984 0.56762135 0.44855627 15
-0.12434094 0.57520378 0.39761865 11
-0.12714228 0.57801163 0.42631733 13
-0.12696913 0.5659883 0.44758698 15
-0.12172325 0.5719825 0.39601767 11
-0.12553626 0.58005065 0.42741758 13
-0.12399197 0.56120634 0.44474009 15
-0.11926328 0.56146562 0.39077443 11
-0.12618306 0.58530349 0.43027225 13
-0.12360787 0.56126642 0.44477126 15
-0.11908732 0.57057428 0.39532343 11
-0.12352487 0.58214635 0.42854884 13
-0.12338819 0.57004845 0.44993702 15
-0.12074277 0.5812155 0.40063155 11
-0.12109439 0.57181704 0.42293134 13
-0.12333749 0.57180518 0.4509705 15
-0.1194684 0.58503836 0.40254635 11
-0.12083078 0.58077127 0.42779508 13
-0.12138213 0.57210064 0.45112628 15
-0.11641563 0.57097799 0.39553624 11
-0.12143691 0.58602756 0.43065226 13
-0.11966091 0.56536639 0.44714609 15
-0.11450619 0.57125998 0.39568651 11
-0.12076667 0.59325331 0.43457785 13
-0.11739961 0.56395292 0.44629505 15
-0.11412419 0.57131577 0.3957164 11
-0.11873565 0.58464402 0.42989638 13
-0.11994648 0.57930177 0.45535508 15
-0.11317473 0.57689118 0.39850816 11
-0.1151583 0.57625693 0.42533487 13
-0.11764637 0.5778873 0.45450518 15
-0.1137468 0.58224654 0.40118149 11
-0.11476884 0.57631248 0.42536497 13
-0.11916665 0.58814436 0.46055865 15
-0.10909283 0.56659609 0.39338756 11
-0.11576524 0.59218776 0.43399692 13
-0.11476666 0.57480341 0.45266977 15
-0.10840102 0.56488115 0.39253479 11
-0.11505247 0.59050792 0.4330838 13
-0.11656387 0.58676523 0.45972997 15
-0.10651104 0.56514102 0.39267814 11
-0.11182915 0.58383733 0.42945907 13
-0.10858112 0.57934141 0.39976412 11
-0.11082219 0.58041817 0.42760059 13
-0.0060486952 0.58200932 0.40353456 11
-0.0037144807 0.5891223 0.40720651 11
-0.004631537 0.60249412 0.441962 13
-0.0025890938 0.59544098 0.43818581 13
-0.0021911354 0.60245037 0.4420405 13
0.00051350257 0.57117313 0.39835423 11
-0.00012750972 0.60416126 0.44306561 13
0.00093037356 0.57831079 0.40196177 11
0.00018458448 0.59187412 0.4363516 13
0.0028458913 0.5746904 0.40022254 11
0.0020722083 0.5777936 0.42872474 13
0.0032112708 0.57468086 0.40023348 11
0.002566434 0.59006107 0.43546322 13
0.0016250451 0.57961386 0.45781308 15
0.0051294402 0.5674637 0.39671841 11
0.0047353827 0.59524572 0.43843308 13
0.003566934 0.56750315 0.45074505 15
0.0050635771 0.58997297 0.4355607 13
0.0038242508 0.55717736 0.44462478 15
0.0074756849 0.57096493 0.39858282 11
0.0071177883 0.59341764 0.43754029 13
0.0058706147 0.56571215 0.44978938 15
0.0079264315 0.57452404 0.40039304 11
0.0070471242 0.56710309 0.4231286 13
0.0065440824 0.58288795 0.46002129 15
0.0099290088 0.57802886 0.40224564 11
0.0092637669 0.58106244 0.43087474 13
0.0084001813 0.57594436 0.45598692 15
0.010233643 0.57444352 0.40045616 11
0.0096950084 0.5828014 0.43184704 13
0.0085115125 0.56218106 0.44781917 15
0.012062569 0.57079983 0.39870688 11
0.01188509 0.5914914 0.43670857 13
0.010518866 0.56554478 0.44991511 15
0.01239684 0.56899929 0.39781672 11
0.012239818 0.58972263 0.4357571 13
0.011411146 0.58614987 0.46219489 15
0.014462925 0.57427591 0.40056628 11
0.014283523 0.59139299 0.43677005 13
0.01312879 0.57575822 0.45611036 15
0.015176008 0.5849697 0.40597773 11
0.014683237 0.59137571 0.43678007 13
0.01357161 0.57745939 0.45714292 15
0.016708946 0.57238859 0.39972273 11
0.017026605 0.60180074 0.44260246 13
0.015111688 0.56362844 0.44900927 15
0.016907338 0.56701654 0.39703053 11
0.017139954 0.59302026 0.43780115 13
0.015664436 0.56876379 0.45208699 15
0.019075623 0.57406324 0.40067795 11
0.018629532 0.57890737 0.43014961 13
0.017733943 0.57210529 0.45417899 15
0.019802265 0.58296621 0.40519005 11
0.019021215 0.57888788 0.4301587 13
0.017876457 0.56521595 0.45009616 15
0.021752305 0.58286595 0.40523434 11
0.021121623 0.58229059 0.43212822 13
0.020015823 0.57026792 0.45320943 15
0.021238634 0.56143636 0.39443347 11
0.020937871 0.5682565 0.42443666 13
0.019923175 0.55822742 0.44605625 15
0.022876939 0.55598205 0.3917717 11
0.023640504 0.58566451 0.43410519 13
0.021686856 0.55468893 0.44405141 15
0.023496184 0.56131196 0.39448243 11
0.023720609 0.57863694 0.43026283 13
0.022673162 0.56840146 0.45224565 15
0.02546503 0.5629859 0.39542264 11
0.025593577 0.57677215 0.42934081 13
0.024782142 0.57172096 0.45433295 15
0.026109297 0.5683133 0.39813361 11
0.026069716 0.57849962 0.43031156 13
0.025008645 0.56826484 0.45229408 15
0.028747628 0.58424991 0.40627989 11
0.02854727 0.59064049 0.43708876 13
0.026135802 0.55442429 0.4441424 15
0.027610838 0.55569905 0.39186811 11
0.029407775 0.59936774 0.44191131 13
0.026871463 0.56126404 0.44824389 15
0.029878771 0.5627085 0.39550874 11
0.03143255 0.59923667 0.44194975 13
0.029550418 0.57486427 0.45646954 15
0.031688407 0.58763772 0.40813452 11
0.030847263 0.58170927 0.43232635 13
0.030039579 0.57655364 0.45750049 15
-0.078629307 0.60429293 0.41269153 11
-0.10790801 0.58662152 0.40350625 11
-0.11072623 0.59104288 0.43348163 13
-0.10631837 0.57959569 0.40000376 11
-0.11092675 0.59456998 0.4354009 13
-0.10232465 0.56745785 0.39396366 11
-0.10891987 0.5948323 0.43554914 13
-0.10370108 0.5781287 0.39929193 11
-0.10969058 0.60183614 0.43935975 13
-0.10349076 0.58900076 0.40473565 11
-0.10679796 0.59687853 0.43667072 13
-0.1033833 0.59082139 0.40564808 11
-0.10925833 0.61431742 0.44615757 13
-0.10028938 0.58397835 0.40225282 11
-0.098224595 0.57339406 0.39697441 11
-0.09849485 0.5878064 0.40418878 11
-0.097829923 0.58608013 0.40333158 11
-0.096938737 0.59340328 0.40700969 11
-0.096542552 0.59344894 0.40703726 11
-0.093001977 0.58302855 0.40185973 11
-0.093129866 0.58662081 0.40365803 11
0.032991175 0.57678044 0.40280694 11
0.03300906 0.58504111 0.43433452 13
0.032199223 0.57981402 0.45962945 15
0.032940894 0.56962579 0.39920729 11
0.034145217 0.59726 0.44108489 13
0.031573173 0.56263661 0.44939724 15
0.034160003 0.5588004 0.3938297 11
0.035717797 0.59011924 0.4372656 13
0.034795798 0.58307362 0.46171835 15
0.035230443 0.56946146 0.39924625 11
0.036454532 0.59533715 0.44016263 13
0.036284916 0.60018933 0.47196531 15
0.03811118 0.58356661 0.40649155 11
0.03811207 0.58994073 0.43730447 13
0.038501758 0.58353668 0.40649766 11
0.037914388 0.58116752 0.43249282 13
0.041380662 0.60199052 0.44408664 13
0.039807931 0.56910968 0.39931759 11
0.042544149 0.61244583 0.44987467 13
0.042255774 0.57607371 0.40295285 11
0.045815822 0.58651948 0.40840146 11
0.047182422 0.57923108 0.40481693 11
0.014191285 0.56894672 0.39783192 11
0.013912968 0.58265775 0.43192548 13
0.012819157 0.56891513 0.45198622 15
0.014681259 0.57250053 0.3996419 11
0.012869108 0.55687135 0.44483826 15
0.016296705 0.56349075 0.39518765 11
0.016963389 0.60358238 0.44352943 13
0.015210233 0.5705294 0.45306695 15
0.016735574 0.56525809 0.39609721 11
0.016437871 0.57552522 0.42814529 13
0.015545574 0.56879354 0.45205373 15
0.019031025 0.57587451 0.40154535 11
0.018193157 0.57017535 0.42530483 13
0.017553614 0.57041764 0.45312294 15
0.019621002 0.58120883 0.40425596 11
0.018839628 0.57716447 0.42916301 13
0.017820193 0.56696326 0.45108631 15
0.021269867 0.57397228 0.40069777 11
0.021004543 0.58231956 0.43209493 13
0.019220784 0.55312562 0.44294667 15
0.021326529 0.58054703 0.43114132 13
0.019874875 0.55997431 0.44704732 15
0.023010405 0.56136 0.39444274 11
0.023212582 0.57868814 0.4302218 13
0.022387981 0.57360423 0.45527452 15
0.024041438 0.57560885 0.40165755 11
0.023604138 0.57866597 0.43023017 13
0.023006955 0.57873249 0.45835248 15
0.025792945 0.57193005 0.39989603 11
0.026067873 0.58905852 0.43604752 13
0.024662677 0.57175165 0.45430088 15
0.026530709 0.57904071 0.40350786 11
0.026038736 0.58027995 0.43124202 13
0.024232421 0.55456412 0.44407576 15
0.02722355 0.55753249 0.39273122 11
0.0285195 0.59242105 0.43801892 13
0.026718967 0.56818318 0.45229894 15
0.02845405 0.57355559 0.40084863 11
0.02882804 0.59064519 0.43706387 13
0.026842421 0.56301063 0.44923627 15
0.030777793 0.58056176 0.40449023 11
0.030434191 0.58351541 0.43325019 13
0.029430358 0.57489544 0.45643795 15
0.03157445 0.58766603 0.40810248 11
0.030828927 0.58348924 0.43325755 13
0.029347448 0.56629139 0.45132744 15
0.032678068 0.57327533 0.40092739 11
0.032802399 0.58335495 0.43329343 13
0.031085206 0.56272906 0.4493154 15
0.032408826 0.56255627 0.39552596 11
0.034041088 0.59732467 0.44100535 13
0.032491032 0.57985348 0.45955911 15
0.034752272 0.56954825 0.39916432 11
0.035948198 0.59543127 0.44007686 13
0.03479787 0.58485597 0.46266469 15
0.035596605 0.57664663 0.40277669 11
0.035564661 0.58315772 0.43334103 13
0.03800901 0.5900051 0.43722641 13
0.038158018 0.58003479 0.4046174 11
0.038646143 0.59347194 0.43915942 13
0.04115105 0.60030806 0.44304389 13
0.040746201 0.583413 0.40645632 11
0.042311825 0.61076432 0.4488306 13
-0.0064751147 0.58738434 0.40620255 11
-0.0046518221 0.60601306 0.44386846 13
-0.0017958026 0.57659036 0.40096471 11
-0.0026237296 0.59545159 0.43817124 13
-0.0022017839 0.60421485 0.44298702 13
0.00046985768 0.56939626 0.39744151 11
-0.00022021134 0.59364736 0.43728638 13
0.00087785919 0.57296044 0.39925131 11
0.00012709702 0.58486789 0.43249473 13
0.0021039536 0.58481967 0.4325549 13
0.0031787222 0.57290363 0.39932117 11
0.0026045803 0.59533274 0.43833283 13
0.0014603167 0.56243104 0.44758376 15
0.0049921968 0.56570578 0.39578006 11
0.0046617221 0.59878427 0.44031447 13
0.0035088598 0.57269263 0.4537712 15
0.0054252604 0.56926692 0.39758995 11
0.0050174338 0.59526503 0.43840379 13
0.0040085684 0.58127677 0.4588916 15
0.0074621881 0.57635134 0.40124279 11
0.0068779886 0.58643472 0.43365428 13
0.0061591566 0.59152865 0.46508011 15
0.0079836417 0.58348238 0.40485221 11
0.0073055611 0.58817518 0.43462682 13
0.0063087069 0.57604504 0.45589346 15
0.0097762756 0.57627213 0.40130684 11
0.0094037233 0.59336656 0.4375664 13
0.0080079455 0.56222713 0.44777066 15
0.0098356502 0.5619728 0.39411864 11
0.009652921 0.586339 0.43373087 13
0.0085331909 0.56908804 0.45186985 15
0.011718218 0.56190145 0.39416879 11
0.011634826 0.58626395 0.43378371 13
0.010481077 0.56901419 0.45192173 15
0.012428135 0.57438445 0.40047878 11
0.012031185 0.58624828 0.43379408 13
0.011121257 0.5793094 0.45806611 15
0.04215711 0.57613736 0.40287215 11
0.043427397 0.55811429 0.3938897 11
0.052386001 0.58597261 0.4083966 11
0.06402494 0.58475173 0.40848765 11
-0.16801488 0.60365891 0.41188508 11
-0.1621761 0.58282572 0.40149033 11
-0.15586777 0.56576741 0.3929669 11
-0.15816925 0.57631356 0.3982237 11
-0.16459808 0.59088784 0.43364936 13
-0.15712482 0.58020341 0.40014872 11
-0.15996048 0.58101898 0.42824414 13
-0.16434853 0.58734643 0.46076956 15
-0.15761706 0.58377475 0.40192696 11
-0.16088574 0.58624083 0.43107948 13
-0.15956685 0.57063293 0.4508723 15
-0.098795645 0.58963877 0.40497994 11
-0.098674275 0.5914585 0.40589234 11
-0.095099278 0.58104783 0.40072095 11
-0.095242158 0.58464009 0.40251815 11
-0.094848514 0.59550816 0.40796596 11
-0.090569332 0.59957874 0.41006234 11
-0.086060606 0.60543966 0.41306692 11
-0.073659912 0.60295361 0.41203746 11
-0.07175763 0.60311317 0.41213968 11
-0.15354747 0.57542717 0.39774698 11
-0.15939428 0.5883494 0.43219152 13
-0.15507315 0.56093687 0.44508436 15
-0.15229592 0.57201022 0.39604044 11
-0.15942974 0.59014457 0.43316215 13
-0.15382595 0.55765241 0.44313216 15
-0.15166666 0.57763743 0.39883474 11
-0.15572794 0.58367777 0.42961302 13
-0.15575136 0.57317203 0.45226249 15
-0.15341434 0.58645695 0.40323043 11
-0.15448137 0.58032298 0.42778188 13
-0.15663446 0.57829618 0.45528314 15
-0.1501919 0.58159232 0.40079409 11
-0.15125845 0.57555526 0.42515984 13
-0.15214024 0.56858456 0.44949439 15
-0.14770307 0.57291836 0.39646694 11
-0.15086941 0.57563096 0.42519563 13
-0.15091442 0.56529325 0.44753945 15
-0.15140726 0.58631897 0.4309839 13
-0.14732814 0.55892789 0.44373295 15
-0.14457738 0.56985849 0.39493066 11
-0.14894705 0.57779944 0.42634419 13
-0.14776915 0.56237054 0.44575965 15
-0.14430249 0.57722825 0.3985979 11
-0.14699419 0.57816905 0.42652088 13
-0.14868858 0.57453543 0.45290905 15
-0.1439167 0.57730055 0.39863262 11
-0.1457911 0.57480174 0.42468455 13
-0.14586434 0.564493 0.44696504 15
-0.14049731 0.57062382 0.39529791 11
-0.14436553 0.57686239 0.42578426 13
-0.14084792 0.55133462 0.43915141 15
-0.13771415 0.56017232 0.3900857 11
-0.14597496 0.58554149 0.43050054 13
-0.14206612 0.55815297 0.44317356 15
-0.13820717 0.57104236 0.39550093 11
-0.14163136 0.57556748 0.42505488 13
-0.14212231 0.56694251 0.44833085 15
-0.13939953 0.57813084 0.39903441 11
-0.13966958 0.56874704 0.42134151 13
-0.14173445 0.56701261 0.448365 15
-0.13824314 0.58198833 0.40095454 11
-0.13890892 0.57426232 0.42432219 13
-0.138634 0.56229168 0.44554037 15
-0.13475969 0.56800866 0.39398399 11
-0.13929376 0.57777876 0.42623094 13
-0.13709193 0.55729109 0.44257897 15
-0.13810301 0.58157104 0.42827597 13
-0.13594422 0.5610069 0.44474176 15
-0.13247962 0.56840801 0.39418128 11
-0.13808997 0.58336437 0.42924792 13
-0.13669761 0.56614578 0.44777137 15
-0.13170187 0.5740096 0.39697391 11
-0.13462219 0.57679927 0.42566246 13
-0.136255 0.57324564 0.45193458 15
-0.13318498 0.58286691 0.40139011 11
-0.1349787 0.58031797 0.42757291 13
-0.13474555 0.56823677 0.44896966 15
-0.13013436 0.57791698 0.39892337 11
-0.13117993 0.57201272 0.42304334 13
-0.13023287 0.55671465 0.44213495 15
-0.12534851 0.55686688 0.38842857 11
-0.13299207 0.58244103 0.42871109 13
-0.13131522 0.56355017 0.44616699 15
-0.12565024 0.56773734 0.39385101 11
-0.13030261 0.57930928 0.42699638 13
-0.13082811 0.5706439 0.45033011 15
-0.1267101 0.57484198 0.39739397 11
-0.12847205 0.57245958 0.42326993 13
-0.13115634 0.57409573 0.45236361 15
-0.12338866 0.5680933 0.39405271 11
-0.12726253 0.57621717 0.42532364 13
-0.12850316 0.57100868 0.45053709 15
-0.12302769 0.568151 0.39408237 11
-0.12830539 0.58319408 0.42911544 13
-0.12460506 0.55411696 0.44055638 15
-0.11983065 0.56138659 0.39071453 11
-0.12678176 0.58522052 0.43020922 13
-0.12488706 0.56457788 0.44671309 15
-0.12224858 0.575544 0.39777514 11
-0.12605943 0.58354872 0.42929885 13
-0.12590571 0.57141966 0.45074943 15
-0.12087154 0.57938993 0.39970034 11
-0.12224588 0.57521832 0.42476246 13
-0.12449574 0.57513714 0.45292252 15
-0.11948442 0.57415468 0.39709124 11
-0.12187654 0.57527477 0.42479211 13
-0.12242508 0.56670845 0.44794151 15
-0.11732645 0.57266599 0.39635682 11
-0.12002931 0.57555425 0.42493951 13
-0.11924665 0.56019521 0.444078 15
-0.12132694 0.58427209 0.42967856 13
-0.12021489 0.56704223 0.44811773 15
-0.11470092 0.5712409 0.39565769 11
-0.1196615 0.58630025 0.43077812 13
-0.11923826 0.57242888 0.45128164 15
-0.11531781 0.57659119 0.39832783 11
-0.11634482 0.57075375 0.42232534 13
-0.12049878 0.58097869 0.45632687 15
-0.11401299 0.58040565 0.40024149 11
-0.11664318 0.58317548 0.42907754 13
-0.11785196 0.57786858 0.45447573 15
-0.11332472 0.57869142 0.39938888 11
-0.11658898 0.58496338 0.43004948 13
-0.11587771 0.56942177 0.44948605 15
-0.10823002 0.5612914 0.39072376 11
-0.11522223 0.58871526 0.43208981 13
-0.11642441 0.58330601 0.45767075 15
-0.10975155 0.5719474 0.39604077 11
-0.11484463 0.58876789 0.43211868 13
-0.11792476 0.59356475 0.46372518 15
-0.10966408 0.58282393 0.40147978 11
-0.11068328 0.57689083 0.42566359 13
-0.10990675 0.58641142 0.40327194 11
-0.11276553 0.5908317 0.43324366 13
-0.10612493 0.57606041 0.3981249 11
-0.11135279 0.59457618 0.43528366 13
-0.10366252 0.56372219 0.39197373 11
-0.11217099 0.60157561 0.43909016 13
-0.10410788 0.5781334 0.39917919 11
-0.10923884 0.59662956 0.436407 13
-0.10491176 0.58526236 0.40273875 11
-0.10856325 0.59494072 0.4354901 13
-0.104204 0.5925833 0.40640858 11
-0.10895818 0.6090939 0.44319278 13
-0.10125148 0.57668942 0.3984834 11
-0.099023953 0.57515889 0.3977398 11
-0.099776745 0.5822919 0.4013024 11
-0.16491072 0.59137881 0.40588465 11
-0.16587543 0.59669161 0.40853211 11
-0.16164532 0.58838928 0.40437293 11
-0.16035931 0.58498234 0.40266988 11
-0.16544704 0.59425342 0.43561065 13
-0.15455054 0.5696525 0.39500743 11
-0.16400167 0.59635675 0.43672359 13
-0.16223109 0.57886219 0.45588574 15
-0.15593021 0.57671362 0.39852756 11
-0.16052283 0.58444399 0.43023115 13
-0.16183533 0.57894337 0.45592332 15
-0.15530592 0.58234626 0.40132433 11
-0.15681234 0.57798654 0.4266839 13
-0.1581248 0.57262385 0.45213324 15
-0.15404984 0.5789305 0.3996177 11
-0.15685453 0.57978022 0.42765424 13
-0.15600649 0.56597984 0.44819245 15
-0.15297049 0.58281356 0.40154296 11
-0.15745874 0.59046811 0.43344206 13
-0.15321702 0.56300318 0.44638377 15
-0.14831316 0.56540626 0.39285678 11
-0.15791242 0.5939796 0.43534753 13
-0.1536818 0.56644362 0.44840968 15
-0.14599998 0.56402797 0.39215907 11
-0.15296246 0.58235162 0.42899016 13
-0.15132363 0.56514102 0.44759354 15
-0.14982353 0.58159894 0.40092239 11
-0.15047126 0.5738402 0.42435229 13
-0.15219231 0.57026619 0.450616 15
-0.14746706 0.58021128 0.40024295 11
-0.14770462 0.57076484 0.42267501 13
-0.14900412 0.56557631 0.44782183 15
-0.14418554 0.56802821 0.39416364 11
-0.15020892 0.58287042 0.42925844 13
-0.14573382 0.55385828 0.44088313 15
-0.13983838 0.55787539 0.38909161 11
-0.14783208 0.5815233 0.42850086 13
-0.14424278 0.55590284 0.44205171 15
-0.13987157 0.55969769 0.38999936 11
