# .PCD v0.7 - Point Cloud Data file format
VERSION 0.7
FIELDS x y z label
SIZE 4 4 4 4
TYPE F F F U
COUNT 1 1 1 1
WIDTH 1357
HEIGHT 1
VIEWPOINT 0 0 0 1 0 0 0
POINTS 1357
DATA ascii
0.23634057 0.58460981 0.42843825 9
0.23438662 0.57070333 0.45016742 11
0.2246013 0.53692675 0.45908836 13
0.22840294 0.53778499 0.48978141 15
0.24226706 0.60789466 0.4111563 7
0.23929718 0.59115374 0.43199041 9
0.23478559 0.57057548 0.45012149 11
0.23507293 0.56240308 0.47538191 13
0.22503841 0.52828383 0.48325676 15
0.24497342 0.60892856 0.41175461 7
0.24197435 0.59216505 0.43265423 9
0.23165654 0.55686647 0.44220844 11
0.23452416 0.55536747 0.47106931 13
0.23073184 0.53703535 0.48951229 15
0.24020323 0.59521687 0.4050152 7
0.24431695 0.59703141 0.43530342 9
0.23525354 0.56490499 0.446964 11
0.23555569 0.55683756 0.47204381 13
0.2330153 0.54159194 0.49270499 15
0.24744877 0.60812259 0.41146547 7
0.24376757 0.58970517 0.4314706 9
0.23787551 0.56589252 0.44769266 11
0.23303558 0.54502064 0.46467465 13
0.24786106 0.60798752 0.41141704 7
0.24287039 0.58624405 0.42962667 9
0.24215877 0.57554793 0.45340267 11
0.23213625 0.54170215 0.46258989 13
0.23663653 0.5439443 0.4945876 15
0.25190073 0.61238837 0.41367859 7
0.2429169 0.58059251 0.42669591 9
0.23828964 0.56022358 0.444536 11
0.24055038 0.55700707 0.47255188 13
0.23602478 0.5370698 0.49004409 15
0.25363767 0.61563677 0.41529906 7
0.24594912 0.58710724 0.43023762 9
0.23737304 0.55683613 0.44257206 11
0.24094605 0.55687594 0.47250485 13
0.2357682 0.53538465 0.48892027 15
0.25160101 0.60483629 0.41005936 7
0.25050098 0.59311503 0.43359768 9
0.24184266 0.56273389 0.4461855 11
0.24411443 0.55944049 0.47431937 13
0.24278232 0.54721832 0.49732056 15
0.25334552 0.60808063 0.41167843 7
0.25090918 0.59297836 0.43354872 9
0.24355753 0.56585526 0.44805408 11
0.23926401 0.54657471 0.46612686 13
0.24317728 0.54708606 0.49727318 15
0.25675124 0.61076456 0.41309673 7
0.25027025 0.58565933 0.42971882 9
0.24953157 0.57493794 0.45355901 11
0.24252939 0.54909986 0.46792734 13
0.24449493 0.54486853 0.49595863 15
0.24933213 0.58220756 0.42787832 9
0.24859962 0.57155281 0.45159593 11
0.24424458 0.55214649 0.46991462 13
0.2396325 0.53231585 0.48730069 15
0.26330879 0.62004083 0.41779044 7
0.25201294 0.58318061 0.42852899 9
0.24790804 0.56438172 0.44752634 11
0.24687396 0.55306602 0.47069213 13
0.24221826 0.53321135 0.48814175 15
0.24628285 0.55937946 0.44460881 11
0.24860461 0.55610579 0.47267699 13
0.2465837 0.54238087 0.49454749 15
0.2536706 0.57166916 0.45201319 11
0.24788339 0.54908413 0.46837002 13
0.24557328 0.54260868 0.46425858 13
0.24960274 0.54311937 0.49533248 15
0.25156352 0.5424369 0.49508834 15
0.25060344 0.53920799 0.4928914 15
0.20959091 0.61757129 0.4146758 7
0.20814417 0.60409284 0.43728223 9
0.20150687 0.57495904 0.45061716 11
0.21000901 0.61745703 0.41463447 7
0.20579225 0.59551203 0.43269724 9
0.20521021 0.58481026 0.45639786 11
0.20054579 0.56191361 0.47256908 13
0.21714999 0.63239104 0.4220393 7
0.20839719 0.59664112 0.43340188 9
0.20502599 0.57761467 0.45231685 11
0.20419319 0.56623578 0.47545978 13
0.21420321 0.62193519 0.41692197 7
0.21048728 0.60160255 0.43608522 9
0.20791321 0.57586271 0.48159653 13
0.20130815 0.54760104 0.49386537 15
0.21346736 0.61274201 0.41248405 7
0.21481524 0.60778719 0.43950742 9
0.20715854 0.56718719 0.47624651 13
0.20660454 0.55655676 0.50019354 15
0.21274428 0.60918349 0.41075179 7
0.2163658 0.61104971 0.44128004 9
0.20559308 0.57020241 0.44815773 11
0.20644124 0.56383198 0.47414804 13
0.2148072 0.60860109 0.41054142 7
0.21216954 0.59188688 0.43109024 9
0.21213557 0.58288002 0.45570016 11
0.20730907 0.56002861 0.47188774 13
0.2112495 0.56220859 0.5042972 15
0.21867366 0.61879909 0.41556561 7
0.21314979 0.59345913 0.43195525 9
0.21083222 0.57780051 0.45275423 11
0.21110326 0.56963187 0.47801602 13
0.20659961 0.54785496 0.49447253 15
0.21715671 0.60793024 0.41029924 7
0.22027247 0.60808933 0.43991375 9
0.20870134 0.56568646 0.44578585 11
0.21071482 0.5626182 0.47370973 13
0.20845447 0.54732484 0.49428117 15
0.21582274 0.60265964 0.40772521 7
0.21024929 0.56887853 0.4476797 11
0.2139755 0.57059145 0.47880605 13
0.20884894 0.54721135 0.49424019 15
0.21668984 0.59863722 0.40582567 7
0.22160721 0.60399628 0.43784142 9
0.2139813 0.57325751 0.45037287 11
0.20964108 0.55223048 0.46729842 13
0.21945025 0.60538089 0.40915531 7
0.21674764 0.58871728 0.42964876 9
0.21496455 0.57479191 0.45129755 11
0.21003313 0.55211633 0.46725723 13
0.21408507 0.55441856 0.49942166 15
0.22519079 0.61502624 0.41398031 7
0.22244471 0.59818363 0.43485105 9
0.21709143 0.57416856 0.45107278 11
0.21152529 0.54989362 0.46601149 13
0.21156178 0.54118425 0.4905172 15
0.2220341 0.6046229 0.40888205 7
0.21929812 0.58796912 0.42937902 9
0.2151338 0.5674544 0.44716609 11
0.21484415 0.55784702 0.47110069 13
0.21427588 0.54737502 0.49481568 15
0.2215569 0.59720397 0.40530905 7
0.22478767 0.59748924 0.43460083 9
0.21699736 0.56690162 0.44696689 11
0.2167041 0.55729514 0.47090185 13
0.21671575 0.54839998 0.49570197 15
0.22075835 0.59366 0.40358219 7
0.22280158 0.59064519 0.43094042 9
0.21739365 0.56678325 0.44692427 11
0.21473233 0.55072969 0.46675745 13
0.21711107 0.54828197 0.49565947 15
0.2282377 0.60844463 0.41093406 7
0.22543722 0.5917142 0.43162432 9
0.21937402 0.56618875 0.44671017 11
0.21429834 0.54370171 0.46244648 13
0.21849413 0.54611582 0.49436209 15
0.22986689 0.61173922 0.41257113 7
0.22463268 0.58823448 0.42977336 9
0.22097471 0.56935948 0.44859639 11
0.21887293 0.55485451 0.46957791 13
0.21770099 0.54285145 0.49215198 15
0.22948281 0.60427821 0.4089832 7
0.22787839 0.59097314 0.43135759 9
0.22174805 0.56546813 0.44645077 11
0.22144556 0.55586445 0.47038674 13
0.21726295 0.5359723 0.48760566 15
0.22620241 0.59390754 0.40389678 7
0.23134673 0.59923089 0.43582603 9
0.2197077 0.55877447 0.44255152 11
0.22365455 0.56056774 0.47341555 13
0.21884967 0.53899556 0.48972899 15
0.22883727 0.59499389 0.40451354 7
0.23340584 0.59859759 0.43559822 9
0.22657681 0.57130551 0.45004198 11
0.21893094 0.54228693 0.4619374 13
0.22563578 0.55095071 0.49817276 15
0.23297064 0.6051023 0.40950564 7
0.22948509 0.58674973 0.42923912 9
0.22820701 0.57446444 0.45192403 11
0.2187053 0.54056174 0.46087116 13
0.22360779 0.54455262 0.4937996 15
0.23941064 0.616391 0.41514835 7
0.23212802 0.58779418 0.42991456 9
0.23021318 0.57384014 0.45169955 11
0.22617631 0.55440241 0.46986094 13
0.2212898 0.53297162 0.48600844 15
0.23605907 0.6060394 0.41006887 7
0.23753619 0.6010462 0.43707842 9
0.22688247 0.56387973 0.44587955 11
0.22780544 0.55748713 0.4718619 13
0.22228749 0.53441799 0.48704669 15
0.20577565 0.63918465 0.42494652 7
0.20365737 0.62477845 0.41795447 7
0.20461579 0.62639749 0.41876259 7
0.20374705 0.61447829 0.44252399 9
0.20889896 0.632752 0.42195097 7
0.20154247 0.60034221 0.43504038 9
0.20715703 0.62572479 0.41851878 7
0.20303515 0.60362667 0.43682083 9
0.20817688 0.62170416 0.41661906 7
0.20619874 0.60646248 0.4384388 9
0.20368388 0.58056527 0.48418555 13
0.20749941 0.6181376 0.41488382 7
0.20989567 0.61652172 0.44385481 9
0.20058618 0.57882643 0.45275825 11
0.2030146 0.57720125 0.4820838 13
0.20454364 0.63717949 0.42484722 7
0.20083652 0.61759049 0.41528791 7
0.20392451 0.62612939 0.41950005 7
0.21035893 0.63939726 0.42609596 7
0.20754765 0.62891519 0.42095572 7
0.20451342 0.61012363 0.44118136 9
0.20421356 0.61108321 0.41225705 7
0.20769602 0.61295474 0.44280115 9
0.20681682 0.61787647 0.41561306 7
0.20702715 0.60945207 0.44093716 9
0.20073727 0.57198483 0.47966903 13
0.2133314 0.63110769 0.42219594 7
0.20636773 0.60041958 0.43617693 9
0.20304449 0.58129114 0.45518848 11
0.19950138 0.56168985 0.47327676 13
0.21154277 0.62409407 0.41875985 7
0.20678055 0.60030723 0.4361361 9
0.20235336 0.57786149 0.4532043 11
0.20153441 0.56645393 0.47633359 13
0.21421438 0.62523818 0.41939756 7
0.21107206 0.60650778 0.43957174 9
0.20629387 0.57401717 0.48129138 13
0.20300442 0.55528158 0.5000093 15
0.21071362 0.61306387 0.41342065 7
0.21260525 0.60977519 0.44135025 9
0.20559803 0.57066011 0.47918779 13
0.20176376 0.55041617 0.49669862 15
0.2092711 0.60219586 0.40814042 7
0.21175696 0.60078013 0.4366039 9
0.20386767 0.56838971 0.44791803 11
0.20416035 0.56040663 0.47281086 13
0.21421477 0.61584771 0.41487628 7
0.21217006 0.60066479 0.43656206 9
0.20538783 0.57159096 0.44981927 11
0.20400058 0.55867487 0.47173977 13
0.207343 0.55928808 0.50300825 15
0.21859019 0.62213832 0.41805002 7
0.21423461 0.60008466 0.43635163 9
0.20625132 0.56772059 0.44767532 11
0.20936081 0.56783271 0.47771916 13
0.20377216 0.54290414 0.49191254 15
0.21671744 0.61514366 0.41462091 7
0.21578945 0.60334307 0.43812698 9
0.2083521 0.57257098 0.4505448 11
0.21145581 0.57257539 0.48076826 13
0.20528296 0.54595625 0.4940502 15
0.24984436 0.60874826 0.41282982 7
0.24613512 0.59028375 0.43287805 9
0.23433644 0.55177474 0.44048873 11
0.23855545 0.55348212 0.47126397 13
0.23469727 0.53514934 0.48969266 15
0.24762137 0.60184151 0.40943205 7
0.24588563 0.58848804 0.43193015 9
0.24218898 0.56131727 0.47632205 13
0.23572704 0.5365774 0.49072644 15
0.2456767 0.59101886 0.4041689 7
0.24725066 0.58615553 0.43078899 9
0.23928797 0.55751067 0.44405243 11
0.23830307 0.54633397 0.46690068 13
0.24155459 0.54525828 0.49697 15
0.25473022 0.61286026 0.41499358 7
0.2463294 0.58270216 0.42894289 9
0.24494992 0.57038873 0.45168611 11
0.23869197 0.54620415 0.46685395 13
0.25882065 0.61722851 0.41724977 7
0.24900527 0.58368552 0.42959845 9
0.24760973 0.57134306 0.45240447 11
0.24195479 0.54872978 0.46865824 13
0.24130006 0.5382576 0.4923709 15
0.25722301 0.61202258 0.41469216 7
0.25007677 0.58520669 0.43044755 9
0.24268681 0.55821681 0.4446815 11
0.24564928 0.55654168 0.473708 13
0.23972315 0.53347129 0.48908865 15
0.25794291 0.60794538 0.41276896 7
0.25614002 0.59445375 0.43558541 9
0.24665439 0.5624193 0.4473187 11
0.24895981 0.559044 0.47550404 13
0.24363464 0.53746581 0.49208611 15
0.24973564 0.5687716 0.45110437 11
0.2433527 0.54462922 0.46628737 13
0.25578913 0.57780766 0.45660588 11
0.24394615 0.54079437 0.46401215 13
0.24930143 0.5444048 0.49718323 15
0.25687164 0.57928765 0.45751345 11
0.25106725 0.5565052 0.47414306 13
0.24635458 0.53653234 0.49175051 15
0.24896829 0.53740466 0.49258476 15
0.25272921 0.54499465 0.49791595 15
0.21441437 0.6006031 0.40781778 7
0.22042286 0.60927397 0.44172728 9
0.20944843 0.56847417 0.4485679 11
0.20860229 0.55721211 0.47145736 13
0.21032192 0.55305541 0.49945188 15
0.21482198 0.60048616 0.40777534 7
0.21910672 0.60409832 0.43895775 9
0.21099631 0.5716638 0.45046625 11
0.21014056 0.56033152 0.47347605 13
0.21185401 0.55609924 0.50158787 15
0.21861795 0.60504317 0.4100993 7
0.21417738 0.58329588 0.42784345 9
0.21647801 0.58098882 0.45607299 11
0.20866951 0.55006832 0.46709159 13
0.21500185 0.55867636 0.50355446 15
0.22079074 0.61006784 0.41259292 7
0.21808875 0.593279 0.43324891 9
0.21339391 0.57097125 0.45021501 11
0.2096383 0.55156946 0.46807972 13
0.20795459 0.5380553 0.48936725 15
0.22345155 0.61117673 0.41321892 7
0.21776842 0.5859558 0.42940316 9
0.21421571 0.56709158 0.44806638 11
0.21742934 0.56712693 0.47815901 13
0.21047564 0.53906333 0.49024895 15
0.22208382 0.60591692 0.41064 7
0.21225964 0.56038272 0.44415003 11
0.2137423 0.55571985 0.47091609 13
0.2137626 0.54682571 0.49564436 15
0.2229393 0.60188717 0.40873116 7
0.2207862 0.58692038 0.43005064 9
0.2177828 0.56968123 0.44974738 11
0.21394713 0.55030298 0.46762061 13
0.21924455 0.55568498 0.50195384 15
0.22575046 0.60860842 0.41206393 7
0.21999434 0.58344126 0.42819396 9
0.21937087 0.57285482 0.45164004 11
0.21315698 0.54696494 0.46552265 13
0.2184734 0.55241877 0.4997372 15
0.23023845 0.61482704 0.41521469 7
0.22743569 0.59793967 0.43612975 9
0.220173 0.56896633 0.44948846 11
0.21688983 0.55121017 0.46839368 13
0.21514361 0.53767574 0.48974621 15
0.22701168 0.60444903 0.41010827 7
0.22663793 0.5944609 0.43427321 9
0.21816598 0.56226993 0.4455767 11
0.21787897 0.55270094 0.46937814 13
0.21730925 0.54227322 0.49296179 15
0.22783618 0.60041368 0.40819764 7
0.23112382 0.60054415 0.43766981 9
0.22013366 0.56167364 0.44536087 11
0.22345841 0.56174898 0.47532222 13
0.21926685 0.5416801 0.4927471 15
0.22701606 0.59687603 0.4064672 7
0.23214827 0.60209376 0.4385294 9
0.22295819 0.56812233 0.44918299 11
0.21661344 0.54234505 0.46296066 13
0.22085573 0.54469997 0.49487454 15
0.23151919 0.60307497 0.40961108 7
0.22805206 0.58472091 0.4292545 9
0.22617185 0.57079399 0.45089412 11
0.21915188 0.54335868 0.46377251 13
0.23316941 0.60635811 0.41124949 7
0.22907275 0.58627003 0.43011394 9
0.22657123 0.57067078 0.45084956 11
0.22319941 0.55286849 0.4698838 13
0.2195836 0.53457016 0.48810515 15
0.23272198 0.59890795 0.40765309 7
0.23358461 0.59233057 0.43350258 9
0.22608802 0.56349754 0.44676545 11
0.22947288 0.56348109 0.47683933 13
0.22029436 0.53083879 0.48572046 15
0.2318746 0.59537572 0.40592462 7
0.23773839 0.60223168 0.43887851 9
0.22524095 0.56009817 0.44479111 11
0.225557 0.55213618 0.46961907 13
0.22312476 0.5369814 0.49001259 15
0.23136567 0.5879373 0.40233263 7
0.23729049 0.59490252 0.43503132 9
0.22970684 0.56602812 0.44842583 11
0.22627562 0.54831755 0.46734753 13
0.22938351 0.54731977 0.49737516 15
0.23810127 0.60481703 0.41069248 7
0.23706928 0.59310383 0.43408167 9
0.23323976 0.57408339 0.45320156 11
0.22666577 0.54819435 0.46730304 13
0.22792481 0.54250407 0.49408066 15
0.24398723 0.61435854 0.41549665 7
0.23402047 0.5791142 0.42662913 9
0.23271616 0.56690824 0.449117 11
0.22735845 0.54437679 0.46503201 13
0.22302751 0.52470058 0.48194817 15
0.24056287 0.6040343 0.41040984 7
0.23951884 0.59232485 0.4338004 9
0.23057778 0.56024534 0.44521746 11
0.2327819 0.55704325 0.4731757 13
0.22652937 0.53238714 0.48731634 15
0.23990791 0.59662807 0.40682966 7
0.24207814 0.59337479 0.43447968 9
0.23178297 0.55802047 0.44404075 11
0.23146996 0.54845971 0.46784517 13
0.2302271 0.53648573 0.49035197 15
0.23837397 0.59140772 0.40426522 7
0.23926893 0.58491623 0.42992479 9
0.23601387 0.5676865 0.44977155 11
0.22931784 0.54194629 0.46370828 13
0.23250642 0.54103923 0.49355179 15
0.24559733 0.60431302 0.41073725 7
0.24063498 0.58259815 0.42878783 9
0.24058188 0.57356238 0.45338714 11
0.23124678 0.54131979 0.46348223 13
0.2363684 0.5450781 0.49656594 15
0.24796638 0.60926223 0.41320387 7
0.24103664 0.58246696 0.4287405 9
0.24098328 0.57343131 0.45333984 11
0.23548451 0.55076212 0.4695693 13
0.23294139 0.53560406 0.49003386 15
0.25266573 0.5819537 0.42981058 9
0.2552937 0.57931155 0.45836559 11
0.24684992 0.5501585 0.47088388 13
0.24219061 0.53030348 0.48822939 15
0.25164858 0.56945556 0.45255575 11
0.24992383 0.55636126 0.47491556 13
0.24523504 0.53636014 0.49249738 15
0.25500411 0.57200283 0.45422596 11
0.25393102 0.56042564 0.4777272 13
0.24717659 0.53569037 0.49225566 15
0.24823809 0.54604852 0.46850401 13
0.25180706 0.53941321 0.49516097 15
0.202814 0.63509911 0.42509446 7
0.20539296 0.63443321 0.4248504 7
0.20593113 0.62868881 0.42208633 7
0.20420717 0.62166703 0.41863436 7
0.20794249 0.62628669 0.42098668 7
0.20435789 0.60580391 0.44020757 9
0.1994758 0.58154553 0.45643979 11
0.2078227 0.62444776 0.42009315 7
0.20260735 0.59891587 0.43650937 9
0.1998823 0.58143711 0.45640013 11
0.19961031 0.57154262 0.4806653 13
0.21213675 0.63077641 0.42329162 7
0.20521539 0.60005522 0.43722084 9
0.20354694 0.58586913 0.45912561 11
0.20488185 0.58074039 0.48667616 13
0.2103608 0.62376535 0.41984361 7
0.20507997 0.59825104 0.43626627 9
0.20204307 0.57088864 0.48042613 13
0.20969218 0.61457855 0.41537905 7
0.20880055 0.60276353 0.43880105 9
0.20352127 0.56871539 0.47919035 13
0.21122397 0.61790848 0.41703889 7
0.21088064 0.60772181 0.44149876 9
0.20228018 0.5637399 0.47604722 13
0.21388134 0.61905152 0.41767824 7
0.20848547 0.59363282 0.43398827 9
0.20399521 0.57128108 0.45084542 11
0.20317428 0.55994773 0.47377831 13
0.20539406 0.55731499 0.50292355 15
0.21599342 0.62409568 0.42018601 7
0.21001777 0.59689701 0.43577164 9
0.20439501 0.57117009 0.45080492 11
0.20690122 0.5695563 0.47993949 13
0.20249385 0.54770923 0.49632892 15
0.21753812 0.62178642 0.41912097 7
0.21207219 0.59632307 0.43556222 9
0.2106033 0.5738467 0.48283252 13
0.20613797 0.55189967 0.49940273 15
0.21339367 0.60792112 0.41228235 7
0.2158927 0.60632944 0.44099051 9
0.20876518 0.56726015 0.47865912 13
0.20542267 0.54862654 0.49717855 15
0.21430351 0.60390407 0.41037184 7
0.21683039 0.60236871 0.43895304 9
0.21050029 0.57489091 0.45327142 11
0.20907861 0.56184101 0.47535428 13
0.21077618 0.55754066 0.50352091 15
0.21702307 0.61065328 0.41372427 7
0.21552031 0.59719539 0.43617687 9
0.212046 0.5780797 0.45517415 11
0.20948854 0.55268991 0.50020617 15
0.22026013 0.61348957 0.41520432 7
0.21641511 0.59323943 0.43414128 9
0.21348996 0.57585055 0.45399147 11
0.2137664 0.56761414 0.47923121 13
0.20693336 0.53950095 0.49127448 15
0.21950833 0.60994047 0.41346452 7
0.21914981 0.59985429 0.43773976 9
0.21157971 0.56913531 0.45006293 11
0.21072339 0.55781204 0.47299945 13
0.21074186 0.54884982 0.49777547 15
0.21862973 0.60077536 0.40900856 7
0.22356217 0.60598183 0.44116074 9
0.21240394 0.56526119 0.44791052 11
0.21154621 0.55401146 0.47072804 13
0.21214807 0.5466997 0.49647632 15
0.22080968 0.60579413 0.41150719 7
0.22162685 0.59913498 0.43747777 9
0.21279988 0.56514561 0.44786844 11
0.21135943 0.55228394 0.46965522 13
0.21311924 0.54815948 0.49752402 15
0.2222693 0.60347939 0.41044068 7
0.22072113 0.59013093 0.43271193 9
0.21772993 0.57279563 0.45250824 11
0.21390972 0.55331802 0.47047561 13
0.21742462 0.55387187 0.50166863 15
0.22924879 0.62217587 0.41970959 7
0.22053318 0.58833146 0.43175927 9
0.21872227 0.57432306 0.4534353 11
0.21489073 0.55481207 0.47146338 13
0.21141562 0.53644925 0.48964718 15
0.22775152 0.61127919 0.41442218 7
0.22497135 0.59442347 0.43518981 9
0.215967 0.56055504 0.44547686 11
0.21865198 0.55903518 0.47435421 13
0.2127772 0.53428358 0.48836368 15
0.22454311 0.6009028 0.40930119 7
0.22778597 0.60101038 0.4387784 9
0.21635988 0.56043744 0.44543409 11
0.21904954 0.55891621 0.47431093 13
0.2166983 0.54359502 0.49485141 15
0.22658335 0.60028863 0.40907788 7
0.22985451 0.60038769 0.43855202 9
0.21953003 0.56313115 0.44715706 11
0.21684131 0.54706973 0.46689093 13
0.2186624 0.5430038 0.49463645 15
0.22882259 0.60528541 0.41156879 7
0.22418962 0.58350885 0.42943084 9
0.22596927 0.57943141 0.45680138 11
0.21362877 0.53731233 0.46067521 13
0.220246 0.54602337 0.49676844 15
0.23518872 0.61659473 0.41725379 7
0.22865438 0.58959085 0.432836 9
0.22311649 0.56569147 0.44883165 11
0.22099479 0.55117369 0.46971726 13
0.21861346 0.53601676 0.49002802 15
0.23067056 0.60282892 0.41045108 7
0.23090401 0.59448636 0.43551126 9
0.22229087 0.56229001 0.44685137 11
0.22563484 0.56228566 0.47687024 13
0.22020519 0.53903252 0.49215865 15
0.2301055 0.59542358 0.40685999 7
0.2346873 0.59890854 0.43801463 9
0.22475863 0.56335777 0.44761163 11
0.22384204 0.5520885 0.47049481 13
0.22082339 0.53533632 0.48978087 15
0.23175684 0.59870368 0.40850207 7
0.23509984 0.59878069 0.43796819 9
0.22700496 0.56814969 0.45046929 11
0.22178321 0.54555571 0.4663409 13
0.22425088 0.54304332 0.4951683 15
0.23630543 0.60487401 0.41164476 7
0.23152678 0.58311027 0.42958519 9
0.23148464 0.57407492 0.45411113 11
0.22063383 0.53694499 0.46098709 13
0.22805373 0.54712248 0.49820292 15
0.23986575 0.61324871 0.41581336 7
0.23255621 0.5846535 0.43044478 9
0.23001559 0.56904078 0.45116553 11
0.22721083 0.55283195 0.47121033 13
0.22230521 0.53136444 0.4873032 15
0.24067527 0.60919458 0.41389039 7
0.23963274 0.59735918 0.43745235 9
0.22697534 0.55533755 0.44320944 11
0.23292653 0.56180555 0.47714159 13
0.22298904 0.52763438 0.48491338 15
0.2372701 0.59887153 0.40878892 7
0.24067804 0.59889597 0.43830964 9
0.22862528 0.55848199 0.4450964 11
0.22894511 0.55048811 0.46991405 13
0.22647531 0.53532004 0.49029312 15
0.2393042 0.59822237 0.40855354 7
0.24082281 0.59324104 0.43535894 9
0.23439635 0.56765091 0.45066142 11
0.2277482 0.5418781 0.46456075 13
0.23029062 0.53938097 0.49332133 15
0.24292591 0.60657465 0.41271403 7
0.23675017 0.58145303 0.42898411 9
0.23543081 0.56915522 0.45158029 11
0.22686985 0.53856093 0.46246541 13
0.23256253 0.54393375 0.49652794 15
0.24628188 0.6092996 0.41415501 7
0.2400469 0.58413267 0.43055603 9
0.23806596 0.57014203 0.45231164 11
0.23197758 0.54591578 0.46736372 13
0.22883658 0.52928019 0.48654744 15
0.24669561 0.60916531 0.41410634 7
0.24368367 0.59231752 0.43502426 9
0.23589286 0.56349295 0.44840711 11
0.23939271 0.5633294 0.47858682 13
0.22858654 0.52759844 0.48541909 15
0.24614286 0.60171962 0.41050124 7
0.24833339 0.59829682 0.43839288 9
0.23397622 0.5530799 0.44239122 11
0.23688683 0.55152595 0.4711833 13
0.23496972 0.53786337 0.49277148 15
0.24589561 0.59989315 0.40961263 7
0.24547939 0.58985633 0.43383205 9
0.24021091 0.56760192 0.45101753 11
0.23405384 0.54343486 0.46601823 13
0.25322583 0.61274439 0.41608399 7
0.24356034 0.57922965 0.42817873 9
0.24154417 0.56531948 0.44981685 11
0.23598999 0.54279566 0.46578678 13
0.23859547 0.5402 0.49465635 15
0.25629246 0.61936677 0.41939089 7
0.24593952 0.58407348 0.43083543 9
0.24194053 0.56518781 0.44976923 11
0.23963487 0.55061865 0.47085482 13
0.23510878 0.53075141 0.48811886 15
0.25505236 0.61022377 0.4149442 7
0.24728866 0.58174378 0.42969108 9
0.23995225 0.55478394 0.44375685 11
0.23703107 0.53010964 0.48788661 15
0.25279 0.60333294 0.41154015 7
0.24968903 0.58657908 0.43234473 9
0.24299175 0.56114686 0.44755775 11
0.24659313 0.56094974 0.4777253 13
0.24133119 0.53928655 0.49432582 15
0.25539035 0.60436898 0.41214281 7
0.25494713 0.59421235 0.43661353 9
0.24684379 0.56538796 0.45021635 11
0.24316479 0.54762477 0.46932411 13
0.24579623 0.54486459 0.49842328 15
0.26187944 0.61940247 0.41963163 7
0.25132224 0.58414555 0.43116292 9
0.25058353 0.57336015 0.4549742 11
0.24222699 0.54432017 0.46723348 13
0.24289721 0.53698599 0.49297369 15
0.23432183 0.60507822 0.41247776 7
0.23082647 0.58662432 0.43220711 9
0.2270751 0.56767476 0.45103228 11
0.22185202 0.54506528 0.4668813 13
0.22127981 0.53470224 0.49026728 15
0.23223463 0.59814429 0.40904969 7
0.23371889 0.59317923 0.43579209 9
0.22685465 0.56591445 0.45001838 11
0.22654019 0.55615366 0.47403949 13
0.22105794 0.53301805 0.48913586 15
0.2330074 0.59410977 0.40712899 7
0.23450896 0.5892036 0.43374535 9
0.22696654 0.56038988 0.44688803 11
0.22666095 0.55073655 0.47072956 13
0.2260613 0.5402264 0.49435142 15
0.23341155 0.59398276 0.40708271 7
0.23742928 0.59574831 0.43732661 9
0.23048446 0.56843966 0.45168367 11
0.22332935 0.54101765 0.46451584 13
0.22891508 0.54635119 0.49865428 15
0.23912796 0.60357004 0.41192868 7
0.23682515 0.58847255 0.43347928 9
0.23235695 0.56784815 0.45146838 11
0.22701974 0.54523784 0.46739006 13
0.2289107 0.54108322 0.49518168 15
0.24017565 0.60513717 0.41272518 7
0.23723125 0.58834356 0.43343234 9
0.23401737 0.57098711 0.45335719 11
0.22678173 0.54351687 0.46631762 13
0.2268156 0.53471881 0.49079162 15
0.24287416 0.6061762 0.41332954 7
0.24054067 0.59102398 0.43500766 9
0.23219882 0.5605619 0.44732395 11
0.23251221 0.55247164 0.47225335 13
0.22937927 0.53565824 0.4916521 15
0.24006623 0.59756678 0.40906563 7
0.2422308 0.59422106 0.43677095 9
0.23067939 0.55554342 0.44437796 11
0.23163942 0.54915452 0.47015396 13
0.22725497 0.5293017 0.48726487 15
0.2382009 0.58674836 0.40377188 7
0.24492595 0.59522122 0.43743503 9
0.23777299 0.56794471 0.45187715 11
0.22848721 0.53577381 0.46171561 13
0.23487419 0.54268795 0.49680299 15
0.24510567 0.60355133 0.41214848 7
0.24015492 0.58179229 0.43014899 9
0.24010351 0.5727008 0.45472774 11
0.23014906 0.53883588 0.46372226 13
0.23399822 0.53944838 0.49458712 15
0.24650037 0.60118949 0.41106316 7
0.24216299 0.58113593 0.42991045 9
0.23496585 0.55415016 0.44387153 11
0.23787639 0.55253059 0.47272161 13
0.23275244 0.53103906 0.48893473 15
0.2508516 0.61120194 0.41606393 7
0.2451812 0.58764315 0.43347821 9
0.24150071 0.56035662 0.4778004 13
0.23185584 0.52780479 0.4867208 15
0.24762686 0.59700108 0.40908715 7
0.24720854 0.58697295 0.43323478 9
0.23729989 0.5533793 0.44359154 11
0.2428439 0.55810791 0.47653639 13
0.23893884 0.53958869 0.4951576 15
0.25068742 0.60362202 0.41240141 7
0.24563156 0.58186519 0.4304764 9
0.23900266 0.55649865 0.44547331 11
0.23932642 0.54844177 0.47034198 13
0.24062425 0.54256207 0.49727675 15
0.25194675 0.60129035 0.41132727 7
0.2475197 0.58123416 0.43024734 9
0.24481118 0.56562072 0.45103303 11
0.24379411 0.55417687 0.47421417 13
0.24181858 0.5403949 0.49597013 15
0.25838399 0.61633509 0.41883799 7
0.2472543 0.57944375 0.42929599 9
0.24719748 0.5703541 0.45387542 11
0.24089611 0.5461095 0.46904776 13
0.23894389 0.53251487 0.49051011 15
0.25912559 0.6122582 0.41690275 7
0.25396115 0.59034413 0.43536282 9
0.24652262 0.56319696 0.44977853 11
0.24749079 0.55654764 0.47597006 13
0.24153268 0.53341061 0.49135524 15
0.25818896 0.60874742 0.41517293 7
0.24557874 0.5598225 0.44780418 11
0.24589244 0.55165857 0.47285259 13
0.24455795 0.53946948 0.49563432 15
0.25226802 0.57047921 0.4542959 11
0.24115513 0.53515756 0.46238691 13
0.24784194 0.54189342 0.49755427 15
0.25537235 0.57681322 0.45809415 11
0.25093693 0.55718243 0.47664842 13
0.25875613 0.57934737 0.45976388 11
0.25089154 0.55175483 0.47333571 13
0.24751209 0.53490674 0.49293879 15
0.24722783 0.53322887 0.49180987 15
0.20942248 0.62919462 0.42330569 7
0.20528461 0.60693747 0.44171435 9
0.20494249 0.61356026 0.41557986 7
0.20733096 0.61190474 0.44442147 9
0.20812558 0.6164462 0.41708088 7
0.2083388 0.60795563 0.44238281 9
0.2011984 0.57700056 0.45481262 11
0.20201235 0.57039809 0.48102126 13
0.21019939 0.62150097 0.4195987 7
0.20546043 0.59769499 0.43684897 9
0.20214872 0.57854885 0.45574906 11
0.19970369 0.56217808 0.47579867 13
0.21397875 0.62609017 0.42194584 7
0.20862874 0.60051334 0.43847296 9
0.20334625 0.56649524 0.47870681 13
0.2006333 0.54944038 0.49823454 15
0.21272787 0.6208111 0.4193458 7
0.2084863 0.59871054 0.43751666 9
0.20704474 0.57610643 0.48488119 13
0.20048541 0.54774868 0.49710011 15
0.21032085 0.60647494 0.41231766 7
0.21223287 0.60320473 0.44005057 9
0.20576106 0.56582898 0.47846273 13
0.20411485 0.5519461 0.50018185 15
0.2112979 0.60807949 0.41312751 7
0.21264832 0.60308921 0.44000825 9
0.20393996 0.55924326 0.47428116 13
0.20451358 0.5518353 0.50014126 15
0.2133621 0.60750192 0.41291609 7
0.21301977 0.59745044 0.4370552 9
0.20845734 0.57499802 0.454079 11
0.20648962 0.56030405 0.47511217 13
0.20594952 0.54969829 0.49884391 15
0.2160618 0.61425453 0.416278 7
0.21400079 0.59902018 0.43792614 9
0.20942615 0.57653689 0.45501205 11
0.20688815 0.56019181 0.47507107 13
0.20411542 0.54326987 0.49443018 15
0.21583675 0.60680151 0.41265985 7
0.21606375 0.59843564 0.43771231 9
0.20744208 0.56441075 0.44798523 11
0.2134221 0.57254845 0.48313606 13
0.20551592 0.54113591 0.49313402 15
0.21277855 0.59639221 0.40751439 7
0.2187798 0.60505348 0.44132006 9
0.2089832 0.56759864 0.44989169 11
0.21326005 0.57081759 0.48205978 13
0.20760025 0.54575622 0.49637076 15
0.21655706 0.60095173 0.40985125 7
0.21737404 0.5943622 0.43562889 9
0.21097125 0.56702816 0.4496831 11
0.21069333 0.55732971 0.47358111 13
0.2112816 0.54991758 0.49943972 15
0.21989061 0.60940087 0.41405675 7
0.21545373 0.58751607 0.43193766 9
0.21194792 0.56856173 0.45061427 11
0.20936385 0.55237633 0.47043985 13
0.21282056 0.55295378 0.50158149 15
0.22077821 0.60537612 0.41213885 7
0.21924336 0.59196866 0.43445688 9
0.21627831 0.57457066 0.45429319 11
0.21249123 0.55502796 0.4722963 13
0.21136099 0.54292995 0.49482176 15
0.22296444 0.61039031 0.41464198 7
0.22318617 0.60192943 0.439881 9
0.21199398 0.56128061 0.44647053 11
0.21405008 0.55813456 0.47431898 13
0.21059941 0.53966796 0.49259752 15
0.22145346 0.59952176 0.40932891 7
0.22406974 0.59796286 0.43783695 9
0.21514395 0.56399173 0.44820297 11
0.2154481 0.55594105 0.47307384 13
0.21604668 0.54852593 0.49893135 15
0.22485229 0.60794872 0.41352639 7
0.21672417 0.567164 0.45010376 11
0.21349044 0.54938734 0.46890414 13
0.21644332 0.54840845 0.49888849 15
0.22812399 0.61074978 0.41499746 7
0.22173214 0.58381575 0.43028867 9
0.22110249 0.57314426 0.45377249 11
0.2148528 0.54719722 0.46766034 13
0.21665841 0.54310793 0.49540344 15
0.2285388 0.61062551 0.4149521 7
0.22333959 0.58704734 0.43206438 9
0.21910837 0.56645328 0.44984439 11
0.21762209 0.55350924 0.47174188 13
0.21469121 0.53671098 0.49100137 15
0.22939093 0.60658884 0.41303027 7
0.22901036 0.59648407 0.43729743 9
0.21746707 0.55600882 0.44380352 11
0.22199318 0.55933774 0.47564712 13
0.21603818 0.53455734 0.48969865 15
0.22735721 0.59964156 0.40959725 7
0.22820395 0.59301108 0.43543369 9
0.21906815 0.5591718 0.445701 11
0.2229926 0.56082225 0.47663337 13
0.2188112 0.54071128 0.49401209 15
0.226927 0.59220445 0.40598568 7
0.22963366 0.59071499 0.43429783 9
0.22347248 0.56512982 0.44936186 11
0.21892039 0.54417753 0.46611428 13
0.22136922 0.54168075 0.49488306 15
0.23165624 0.60400569 0.41186351 7
0.22881037 0.58724564 0.43243542 9
0.2244807 0.56664687 0.4502871 11
0.217485 0.53924865 0.46298209 13
0.22236419 0.54312629 0.49592751 15
0.20538838 0.63392133 0.42561612 7
0.19996735 0.61480325 0.41616607 7
0.20432925 0.62112945 0.41937217 7
0.20132545 0.60240263 0.43929487 9
0.20690614 0.6279223 0.42275 7
0.20569916 0.63796967 0.43048829 7
0.2056037 0.636132 0.42958513 7
0.20402358 0.62350082 0.42334938 7
0.20337686 0.61994195 0.42158636 7
0.20038559 0.60114384 0.44144368 9
0.20548378 0.61938703 0.42138028 7
0.20353717 0.60397917 0.44308585 9
0.20482107 0.61583078 0.41961825 7
0.20678923 0.6153056 0.41942337 7
0.20373322 0.59658933 0.43916324 9
0.20233351 0.57387549 0.48632202 13
0.21049745 0.62551665 0.42453954 7
0.20469126 0.5981676 0.44004402 9
0.20139898 0.57891375 0.45893398 11
0.2043601 0.57862353 0.48940921 13
0.20708419 0.60775137 0.41573557 7
0.20675622 0.59760934 0.43983698 9
0.2047848 0.57321364 0.48607656 13
0.21027258 0.61623269 0.41998875 7
0.20937926 0.60424525 0.44347987 9
0.20410141 0.56986749 0.48395142 13
0.21025018 0.60875565 0.41632974 7
0.21047238 0.6002689 0.44141442 9
0.20294316 0.55958247 0.47748461 13
0.21291222 0.61550874 0.41972047 7
0.21144645 0.60183972 0.44229248 9
0.20360829 0.56929666 0.45352256 11
0.203895 0.56108797 0.47848511 13
0.24210943 0.59876418 0.41350162 7
0.23913074 0.58194876 0.43400943 9
0.23779926 0.56945574 0.45665738 11
0.2298265 0.54033029 0.46852505 13
0.24640033 0.60877478 0.41855776 7
0.23824541 0.57850122 0.43213555 9
0.234356 0.55957603 0.45076564 11
0.23084985 0.5417949 0.46951288 13
0.22772281 0.52508426 0.48854119 15
0.24651657 0.60303622 0.41575909 7
0.24349782 0.58613616 0.43645722 9
0.23374176 0.55244374 0.44663641 11
0.24113071 0.56180567 0.48271257 13
0.23408996 0.53531486 0.49595511 15
0.24169882 0.58939594 0.40890947 7
0.24585614 0.59097362 0.43914488 9
0.23607266 0.55718559 0.4495092 11
0.23639052 0.54897606 0.47439954 13
0.23384202 0.53363806 0.49481651 15
0.2450283 0.59210902 0.41036478 7
0.24527621 0.58368337 0.43525133 9
0.23607732 0.55167824 0.44635403 11
0.23316976 0.53564721 0.46590233 13
0.24939349 0.6020925 0.41541097 7
0.24370874 0.57858652 0.43246797 9
0.24038798 0.56127506 0.4521414 11
0.23874685 0.5482024 0.47411415 13
0.25410834 0.60814881 0.41855413 7
0.24505049 0.57626891 0.43131211 9
0.242364 0.56061947 0.45189971 11
0.24267171 0.552302 0.47696921 13
0.23875986 0.53377581 0.49538752 15
0.25518966 0.60969454 0.41935161 7
0.2494328 0.5860495 0.43672651 9
0.23879851 0.55077559 0.44602123 11
0.24568918 0.55850255 0.48104677 13
0.2391485 0.53364611 0.49533969 15
0.25042409 0.59221733 0.4106324 7
0.25401565 0.59201247 0.44013068 9
0.24394901 0.55824852 0.45065081 11
0.24558406 0.55312896 0.47772211 13
0.24162923 0.53457779 0.49620363 15
0.25553867 0.60385412 0.41651577 7
0.25174573 0.58527321 0.43644044 9
0.24700725 0.56458253 0.45448554 11
0.24134845 0.54192817 0.47045752 13
0.25242162 0.58128935 0.43436909 9
0.25235248 0.57198298 0.45908853 11
0.24262211 0.53969103 0.46918508 13
0.24727121 0.54149592 0.50135612 15
0.25268587 0.59883344 0.38519794 5
0.25553033 0.58774424 0.43795457 9
0.2507371 0.56700242 0.45612776 11
0.24501303 0.54429579 0.47222644 13
0.24170178 0.52748919 0.49150923 15
0.25069863 0.56148064 0.45296773 11
0.24829836 0.53760773 0.49888238 15
0.25381058 0.56779331 0.45679462 11
0.25342122 0.55768394 0.48119369 13
0.24802084 0.53593373 0.49774495 15
0.25609517 0.55856794 0.48196796 13
0.25306234 0.54127026 0.50179434 15
0.25952557 0.5964638 0.38432592 5
0.26132938 0.59972739 0.38583624 5
0.21495199 0.61433005 0.42040724 7
0.21064788 0.59222025 0.43834907 9
0.20555913 0.5680933 0.45415103 11
0.20752265 0.5646854 0.48223057 13
0.20198877 0.53963381 0.49622759 15
0.2125283 0.60564417 0.41606322 7
0.21445347 0.602198 0.44383976 9
0.20904391 0.5677976 0.48427469 13
0.20238082 0.53952438 0.49618685 15
0.21459144 0.60506451 0.41584763 7
0.21653406 0.60161346 0.44362232 9
0.2068187 0.56412745 0.45193562 11
0.21163376 0.56883931 0.4851054 13
0.20490015 0.54054683 0.49708301 15
0.21155359 0.5946762 0.41064778 7
0.21752255 0.603176 0.44450012 9
0.20892391 0.56895423 0.45484141 11
0.20977737 0.5622825 0.48089352 13
0.20865916 0.5498721 0.50364655 15
0.21590368 0.60094064 0.41386858 7
0.21671599 0.59419 0.439675 9
0.21207376 0.57167464 0.45659369 11
0.20607425 0.54562169 0.47026402 13
0.20895483 0.54459089 0.50013483 15
0.21864015 0.60766357 0.41725984 7
0.21596868 0.59071571 0.43778959 9
0.21074778 0.56662613 0.4536055 11
0.2121855 0.56159645 0.48063853 13
0.20708041 0.53819418 0.49569225 15
0.21953556 0.60365021 0.41532204 7
0.21859656 0.59180367 0.43849111 9
0.21157734 0.56276613 0.45142972 11
0.21419032 0.56101876 0.48042393 13
0.20788987 0.53449202 0.49328381 15
0.21759394 0.59669828 0.41184571 7
0.21197343 0.56265134 0.45138711 11
0.21227668 0.55447543 0.47621715 13
0.21287009 0.54693145 0.50203747 15
0.22022222 0.59781116 0.41248271 7
0.22400886 0.59946167 0.44282293 9
0.21630481 0.56863773 0.45509475 11
0.21075366 0.54426628 0.4697606 13
0.22241475 0.60281008 0.41501012 7
0.21790747 0.58092093 0.43266436 9
0.21670482 0.56852031 0.45505118 11
0.21172825 0.54575676 0.47075835 13
0.21757378 0.5525043 0.50617415 15
0.22566991 0.60561246 0.41649833 7
0.22290803 0.588691 0.43703791 9
0.21870384 0.56792992 0.45483211 11
0.21604201 0.55159342 0.47470292 13
0.21372095 0.53625661 0.49497291 15
0.22367664 0.59867269 0.4130266 7
0.21552972 0.55797857 0.44890991 11
0.2182112 0.55628508 0.47777793 13
0.21411093 0.53614068 0.49492994 15
0.22450365 0.5946573 0.41108844 7
0.22656091 0.59130275 0.43860337 9
0.21749388 0.55739135 0.44869217 11
0.22019866 0.55569082 0.47755757 13
0.21783622 0.54024887 0.49800617 15
0.22369316 0.59113067 0.40933156 7
0.22757567 0.59285015 0.43947569 9
0.21909079 0.56054676 0.45060629 11
0.21640953 0.54436409 0.47024181 13
0.22119515 0.54794735 0.50344902 15
0.22804211 0.5973599 0.41253993 7
0.2276714 0.58726001 0.43650743 9
0.22458886 0.56979716 0.4562687 11
0.21643084 0.53901178 0.46692196 13
0.22007392 0.5395726 0.49775553 15
0.23090722 0.6040374 0.41591448 7
0.22624283 0.58213037 0.43370983 9
0.22377306 0.56640536 0.45426697 11
0.21923372 0.54529107 0.4710308 13
0.21926761 0.53633022 0.495518 15
0.23048621 0.59661251 0.4122631 7
0.23072727 0.5881812 0.4371478 9
0.22269663 0.55762923 0.44915283 11
0.22423245 0.55268145 0.475997 13
0.21819411 0.52793425 0.48981676 15
0.22965136 0.59309047 0.41050795 7
0.2329894 0.59305578 0.4398509 9
0.22493403 0.56240708 0.45204061 11
0.22401707 0.55096251 0.47491455 13
0.21979001 0.53093493 0.49196479 15
0.23104815 0.59076709 0.40942219 7
0.23566473 0.59408534 0.44053155 9
0.22691332 0.56179398 0.45181367 11
0.22413899 0.54556578 0.47157845 13
0.22599919 0.54124153 0.49941042 15
0.23458925 0.599123 0.41364378 7
0.2329517 0.58563411 0.43590537 9
0.22855169 0.56493247 0.45372161 11
0.21959251 0.53268266 0.46324053 13
0.22639278 0.54111886 0.49936503 15
0.24043024 0.60865057 0.41852489 7
0.23182762 0.57668418 0.43109468 9
0.23116629 0.56593871 0.45446724 11
0.22834867 0.54961294 0.47441509 13
0.22527212 0.53272331 0.49366418 15
0.23957688 0.60513121 0.41677076 7
0.23601566 0.58653349 0.43653801 9
0.22842541 0.55766886 0.4495407 11
0.2293656 0.55108207 0.4754051 13
0.22380428 0.52793449 0.49033561 15
0.2378016 0.59432214 0.41141567 7
0.2412302 0.59419399 0.44087178 9
0.22912276 0.55379188 0.44735965 11
0.2294496 0.54568291 0.47206837 13
0.22572607 0.52732515 0.49011031 15
0.23756658 0.59250063 0.41051576 7
0.23908988 0.58742088 0.43716636 9
0.2301475 0.55529422 0.44828889 11
0.23173037 0.55033165 0.47512761 13
0.22070034 0.59765446 0.41609105 7
0.22211882 0.59245205 0.44279185 9
0.21795493 0.57149279 0.46066785 11
0.20947646 0.53894281 0.47016218 13
0.21474364 0.5440836 0.50432879 15
0.21940207 0.60172045 0.38945445 5
0.22229844 0.60093945 0.4177762 7
0.22075398 0.58732063 0.43996528 9
0.21718068 0.56810206 0.45864749 11
0.21395728 0.55003065 0.47745246 13
0.21166004 0.5345943 0.49764946 15
0.22143088 0.60112256 0.38922948 5
0.22315264 0.59693253 0.41581938 7
0.22398792 0.59005719 0.44159213 9
0.21561995 0.55770344 0.4525013 11
0.21711117 0.55264628 0.47932759 13
0.21244024 0.53089809 0.49522242 15
0.22424866 0.60792369 0.3923896 5
0.22055505 0.58830935 0.41145194 7
0.21720473 0.56085521 0.45443171 11
0.21869037 0.55572528 0.48137707 13
0.21576063 0.53858447 0.50070524 15
0.22256868 0.58770859 0.41122603 7
0.22221655 0.57765758 0.43483654 9
0.2203868 0.56352979 0.45618272 11
0.21471664 0.53916395 0.470691 13
0.22009304 0.54423302 0.50490326 15
0.2273165 0.60891801 0.39291418 5
0.22479463 0.5926832 0.41377154 7
0.22443375 0.58253634 0.43756807 9
0.22198856 0.56667501 0.45811072 11
0.2162997 0.54224026 0.47273949 13
0.21871132 0.53943878 0.50154495 15
0.22813796 0.60484499 0.39108136 5
0.23050232 0.60225147 0.41871947 7
0.22645715 0.58192533 0.43733841 9
0.22277413 0.56280959 0.45591202 11
0.21945356 0.54484165 0.47460949 13
0.21708976 0.52950406 0.49469832 15
0.22669698 0.59954202 0.38863528 5
0.22968543 0.59873348 0.41694671 7
0.23053212 0.59178913 0.4428415 9
0.22195506 0.5594281 0.45389524 11
0.22347035 0.55428916 0.4808372 13
0.21867546 0.53249931 0.4968617 15
0.22934078 0.60064876 0.38920239 5
0.22801359 0.58793926 0.41153815 7
0.23382045 0.59448707 0.44445425 9
0.22331738 0.55719543 0.45268327 11
0.22362997 0.54890323 0.4774746 13
0.2194106 0.52879548 0.49443215 15
0.22903728 0.58950984 0.41235378 7
0.23237826 0.58937287 0.44163427 9
0.22555593 0.56195956 0.45559275 11
0.2203601 0.53922766 0.47116125 13
0.22464323 0.54111242 0.5032118 15
0.23105505 0.5888859 0.41211954 7
0.23255305 0.58375794 0.43862629 9
0.22878125 0.56459928 0.45733103 11
0.22168179 0.53703773 0.46989229 13
0.23217602 0.5997721 0.38887328 5
0.23710652 0.60399199 0.41982478 7
0.23233388 0.58197129 0.43765554 9
0.22855875 0.56284893 0.45630029 11
0.22391945 0.5416888 0.47297889 13
0.22027841 0.52330184 0.49081135 15
0.23483391 0.60085982 0.3894335 5
0.23790511 0.59996468 0.41786095 7
0.23687704 0.58797354 0.44110909 9
0.22803941 0.55572814 0.45213255 11
0.2302234 0.55220097 0.48005328 13
0.22157429 0.52115232 0.48948503 15
0.23778377 0.60761321 0.39257583 5
0.23197423 0.58293211 0.40920654 7
0.23665415 0.58618671 0.44013828 9
0.22968818 0.55885315 0.45405307 11
0.22750194 0.54413426 0.47479078 13
0.22752272 0.53498667 0.49935389 15
0.2352501 0.58567733 0.41068941 7
0.23614267 0.57891572 0.43620884 9
0.23166285 0.55822814 0.45381871 11
0.22819874 0.54034215 0.47247374 13
0.23010035 0.53591704 0.50022286 15
0.24024104 0.60683471 0.39228389 5
0.23949561 0.5956791 0.41580042 7
0.23654525 0.57878751 0.43616077 9
0.23586378 0.56783634 0.45966774 11
0.22732721 0.53704572 0.47034261 13
0.23236676 0.54043776 0.50347847 15
0.24086812 0.60278612 0.39046088 5
0.24657811 0.60855877 0.42244413 7
0.2384363 0.57818222 0.43593389 9
0.23519051 0.56075037 0.4555133 11
0.2316827 0.54280365 0.47429192 13
0.22729178 0.5228287 0.49115402 15
0.2432217 0.60780376 0.39279991 5
0.24375956 0.59999353 0.41809863 7
0.23819432 0.57639849 0.43496433 9
0.23366536 0.55576181 0.45251966 11
0.23270911 0.54426241 0.47528645 13
0.22830543 0.52425212 0.49220791 15
0.24527034 0.60714066 0.39255148 5
0.24320205 0.5925914 0.41441616 7
0.24344608 0.58401257 0.4393234 9
0.23498411 0.55350721 0.45130008 11
0.2327401 0.53888148 0.47192639 13
0.23531331 0.53598988 0.50077069 15
0.24230088 0.58909106 0.41265017 7
0.24385205 0.58388042 0.43927386 9
0.23731677 0.55823445 0.4541958 11
0.23634069 0.54666686 0.47708338 13
0.23697978 0.53895122 0.50292146 15
0.24893026 0.60020721 0.41840616 7
0.24260043 0.57496417 0.43442711 9
0.23928985 0.55758852 0.45395395 11
0.23636074 0.54128224 0.47372207 13
0.23959054 0.53984976 0.50377887 15
0.24548656 0.59935534 0.38902265 5
0.25066108 0.60343605 0.4200705 7
0.24037188 0.56823218 0.43069988 9
0.23772383 0.55261028 0.45096424 11
0.23934609 0.54747486 0.47783431 13
0.23547876 0.52892327 0.49604076 15
0.25084615 0.60723639 0.39274085 5
0.25272444 0.60275292 0.41981483 7
0.24897498 0.58406019 0.43964297 9
0.23836063 0.54873461 0.44876266 11
0.24523899 0.55629438 0.48382708 13
0.2387107 0.53136426 0.49799681 15
0.24847098 0.59085673 0.4137668 7
0.25203568 0.59051669 0.44326711 9
0.24006902 0.55183321 0.4506734 11
0.241706 0.54669291 0.47754166 13
0.24299997 0.54047644 0.50453466 15
0.20096612 0.6092667 0.45092219 9
0.20340201 0.61923701 0.4262436 7
0.20307593 0.60872006 0.45071515 9
0.20221964 0.6139701 0.4235878 7
0.19976828 0.59680283 0.44414046 9
0.2043155 0.61341965 0.42337948 7
0.20668204 0.61142707 0.45232946 9
0.2069013 0.62017733 0.42682031 7
0.20171149 0.59446508 0.4429608 9
0.21120636 0.62647665 0.43008783 7
0.20268308 0.59054923 0.44088909 9
0.2029137 0.57253081 0.49082631 13
0.20724685 0.61263943 0.42308441 7
0.20418502 0.59380591 0.44271153 9
0.20440228 0.57564688 0.49288958 13
0.20712289 0.60521984 0.41939336 7
0.20955382 0.60334092 0.44809002 9
0.20127557 0.56898344 0.45824099 11
0.20264725 0.5638113 0.4853169 13
0.20809163 0.60682112 0.42022029 7
0.20941944 0.60154587 0.44711581 9
0.20387559 0.57546365 0.46216825 11
0.20141341 0.55886811 0.48212034 13
0.21128571 0.60967857 0.42174384 7
0.20871341 0.59257638 0.44224703 9
0.2047936 0.57161772 0.45997581 11
0.20176168 0.55349183 0.47876018 13
0.2089645 0.61039138 0.39317331 5
0.21282567 0.6129874 0.42343786 7
0.20688754 0.58574474 0.4384819 9
0.20297201 0.56492478 0.45596823 11
0.20436853 0.55982018 0.48292318 13
0.2010915 0.54105061 0.50112021 15
0.20976019 0.60637587 0.39136121 5
0.21365939 0.60902232 0.42149615 7
0.2110566 0.59192854 0.44200251 9
0.20959939 0.56894606 0.4890292 13
0.21009965 0.59693664 0.41537651 7
0.21372974 0.5985257 0.44567913 9
0.20777223 0.56240195 0.48478484 13
0.20666474 0.54984522 0.5075376 15
0.21443488 0.60319823 0.41863033 7
0.21637601 0.59962034 0.44638911 9
0.2078035 0.56537932 0.45651034 11
0.20696643 0.5538066 0.47932279 13
0.20922686 0.55085206 0.50843406 15
0.21599658 0.60649812 0.42032105 7
0.2127867 0.58777082 0.43984014 9
0.20763364 0.56362486 0.45547783 11
0.20679857 0.55208874 0.47823083 13
0.20850696 0.54760325 0.50617522 15
0.21407956 0.60325843 0.39003682 5
0.22038935 0.61273605 0.42356613 7
0.21540441 0.58886623 0.44055054 9
0.2119208 0.56962168 0.45922294 11
0.21334329 0.56436104 0.48641196 13
0.20653996 0.53607327 0.49820951 15
0.21506943 0.60487837 0.39079657 5
0.21848294 0.60579163 0.42005476 7
0.21754962 0.59377187 0.44329214 9
0.21059608 0.56458664 0.45621154 11
0.21260437 0.56103754 0.48427039 13
0.20693123 0.53596151 0.4981674 15
0.21644543 0.59326416 0.41376877 7
0.21902518 0.59150732 0.44214118 9
0.21316969 0.56565237 0.45698458 11
0.21057509 0.54924273 0.47671381 13
0.21232131 0.54478586 0.50459629 15
0.21979089 0.6016683 0.41805384 7
0.22177726 0.59807754 0.44580775 9
0.21415123 0.56717509 0.45792976 11
0.21386026 0.55713928 0.4819124 13
0.21443923 0.5493632 0.507873 15
0.25046611 0.59021652 0.41347778 7
0.25272033 0.58657676 0.44113883 9
0.24332471 0.55444324 0.4523533 11
0.2403398 0.53819424 0.47207025 13
0.24494639 0.5398584 0.504255 15
0.25356242 0.59679127 0.41684982 7
0.24776748 0.573273 0.43374544 9
0.24771495 0.56398255 0.45817587 11
0.24271235 0.5427919 0.47513661 13
0.24534091 0.5397256 0.50420535 15
0.25246352 0.57917392 0.43716142 9
0.24836425 0.56008804 0.45596784 11
0.2446636 0.54213148 0.47488973 13
0.2393723 0.52062112 0.49080217 15
0.25489607 0.58396769 0.439861 9
0.24741484 0.55673379 0.45396176 11
0.25039881 0.55458975 0.48314068 13
0.24107908 0.5235635 0.4929457 15
0.25006163 0.55766809 0.45468721 11
0.24900714 0.5367164 0.50255883 15
0.25521058 0.56878501 0.4614757 11
0.24604286 0.53805465 0.47246748 13
0.25341737 0.54994386 0.48050588 13
0.24837573 0.52810818 0.49673221 15
0.25303048 0.53355211 0.50085479 15
0.23257913 0.60894483 0.39362895 5
0.22690228 0.58421028 0.41022611 7
0.23148468 0.58747262 0.44117165 9
0.22406243 0.55845201 0.45406175 11
0.21888359 0.53577805 0.4694933 13
0.22498895 0.54237777 0.50474155 15
0.23165198 0.59594309 0.41622305 7
0.23189302 0.58734703 0.44112435 9
0.22814864 0.56809604 0.45993277 11
0.22110228 0.54043406 0.47258592 13
0.22296068 0.5360418 0.50027919 15
0.23252751 0.60129583 0.39014366 5
0.23557198 0.60038835 0.41857359 7
0.23081304 0.57841611 0.43626338 9
0.22829306 0.56259781 0.45674261 11
0.22427814 0.54301292 0.47444993 13
0.22308458 0.53078055 0.49674064 15
0.23419306 0.60461277 0.3916952 5
0.23472716 0.5968771 0.41680032 7
0.23184064 0.57995057 0.43714076 9
0.22620398 0.55597174 0.45275453 11
0.22652112 0.54766005 0.47753927 13
0.22163527 0.52600491 0.49338496 15
0.23623227 0.6039747 0.39145502 5
0.2329696 0.58609825 0.41138825 7
0.23701017 0.58760923 0.44152278 9
0.22566152 0.54886103 0.44858405 11
0.22848877 0.54704434 0.47730753 13
0.22664839 0.53315246 0.49867213 15
0.23464027 0.589351 0.41306424 7
0.23805037 0.58913821 0.44239816 9
0.23233232 0.56497413 0.4583841 11
0.22513847 0.53739542 0.47099543 13
0.24047936 0.60839427 0.39357328 5
0.23909608 0.59550244 0.41628307 7
0.23296902 0.57031375 0.43201444 9
0.23610872 0.56924605 0.46111274 11
0.22632669 0.53523439 0.46973541 13
0.23011757 0.53554606 0.50061202 15
0.2396044 0.60482848 0.39192814 5
0.24142604 0.6004355 0.4188174 7
0.23719373 0.5801211 0.43750504 9
0.23587659 0.56749642 0.46008068 11
0.22797213 0.53828287 0.47177634 13
0.22738433 0.5276832 0.49505562 15
0.24164443 0.60417557 0.39168265 5
0.24154192 0.59472036 0.41598901 7
0.23985426 0.58112937 0.43818468 9
0.2327631 0.55389583 0.45197365 11
0.23181474 0.54241478 0.47467202 13
0.22679336 0.52088165 0.49041829 15
0.24270144 0.6057598 0.39243054 5
0.23806575 0.58447605 0.41077819 7
0.24283636 0.58761328 0.4418247 9
0.23379603 0.55538923 0.45290932 11
0.23538746 0.55020678 0.47983858 13
0.23033164 0.52848691 0.49587783 15
0.24345388 0.59220695 0.41481766 7
0.24044922 0.57535088 0.4351106 9
0.23717159 0.55795014 0.45462069 11
0.23555632 0.54478312 0.47645736 13
0.23620258 0.53708607 0.50223118 15
0.24527533 0.60492539 0.39211702 5
0.24647616 0.59880787 0.41820565 7
0.23954713 0.57191765 0.43321875 9
0.23497579 0.55135232 0.45064333 11
0.2385212 0.55098087 0.48057714 13
0.23468123 0.53232777 0.49888214 15
0.24587075 0.60087419 0.3902896 5
0.25038037 0.60322183 0.42054507 7
0.24404381 0.57790345 0.4366717 9
0.23746279 0.55236721 0.45139936 11
0.24103041 0.55195099 0.48138952 13
0.23522504 0.52864492 0.4964577 15
0.24561402 0.59902942 0.38944381 5
0.24815188 0.59636086 0.41705939 7
0.24576098 0.58106953 0.43846324 9
0.23523867 0.54577726 0.44742495 11
0.24337524 0.55655843 0.48446402 13
0.23818839 0.53468329 0.50080818 15
0.25152496 0.59904385 0.41852161 7
0.24910744 0.58369559 0.44005206 9
0.23980831 0.55159128 0.45110804 11
0.24406464 0.55274147 0.48213452 13
0.24014333 0.53403592 0.50056517 15
0.25126827 0.59722817 0.41761252 7
0.24951349 0.58356029 0.44000131 9
0.2415195 0.5546875 0.45302063 11
0.23921596 0.5399915 0.47376186 13
0.24248539 0.53852391 0.50381267 15
0.25667426 0.60493004 0.42164147 7
0.24953428 0.57794511 0.43698895 9
0.24814178 0.56530988 0.4596343 11
0.23785339 0.53146392 0.46831921 13
