# .PCD v0.7 - Point Cloud Data file format
VERSION 0.7
FIELDS x y z label
SIZE 4 4 4 4
TYPE F F F U
COUNT 1 1 1 1
WIDTH 1095
HEIGHT 1
VIEWPOINT 0 0 0 1 0 0 0
POINTS 1095
DATA ascii
-0.058086034 0.58533955 0.47407734 4294967293
-0.074455798 0.74288291 0.60909593 4294967295
-0.073349327 0.71580476 0.63110495 1
-0.050105989 0.58471167 0.4149161 4294967289
-0.051939394 0.57090443 0.43605521 4294967291
-0.056553371 0.59390092 0.47948244 4294967293
-0.070467442 0.72792888 0.59949797 4294967295
-0.072661161 0.71418625 0.63000423 1
-0.049689945 0.58471847 0.41495663 4294967289
-0.051031195 0.56395113 0.43218234 4294967291
-0.056368046 0.59731728 0.48160198 4294967293
-0.070455328 0.73460591 0.60393864 4294967295
-0.069254763 0.70608914 0.62449479 1
-0.048056647 0.59184307 0.41882828 4294967289
-0.049206272 0.56746191 0.43433857 4294967291
-0.053045861 0.58200824 0.4724665 4294967293
-0.068215378 0.74131519 0.60859346 4294967295
-0.069236778 0.71260661 0.62916601 1
-0.047414619 0.58830184 0.4170326 4294967289
-0.049488194 0.57790816 0.44025218 4294967291
-0.052490875 0.58030933 0.47146893 4294967293
-0.068418771 0.75132543 0.61523181 4294967295
-0.066999726 0.71914983 0.6340462 1
-0.044483002 0.57413846 0.40988225 4294967289
-0.047933564 0.58663428 0.44534874 4294967291
-0.051482532 0.59738261 0.48206779 4294967293
-0.065248586 0.74635726 0.61220241 4294967295
-0.044696152 0.58478409 0.41543195 4294967289
-0.047070168 0.57967782 0.44146985 4294967291
-0.051381253 0.60250151 0.48522806 4294967293
-0.065526098 0.75803375 0.61994219 4294967295
-0.044670083 0.57273489 0.43773261 4294967291
-0.049059052 0.59911102 0.48334229 4294967293
-0.042809304 0.59367311 0.42024666 4294967289
-0.044764839 0.58143955 0.44267225 4294967291
-0.04850585 0.59740967 0.48234284 4294967293
-0.040424433 0.58836544 0.41767848 4294967289
-0.043130279 0.59015435 0.44776791 4294967291
-0.045162685 0.57867026 0.47109589 4294967293
-0.040096022 0.59014112 0.41863573 4294967289
-0.043465558 0.60407889 0.45565358 4294967291
-0.037996579 0.59014821 0.41882145 4294967289
-0.22673604 0.69114894 0.52387834 4294967293
-0.22274245 0.68656909 0.52144092 4294967293
-0.21694982 0.66826081 0.51069456 4294967293
-0.20970558 0.65137273 0.50207299 4294967293
-0.21351855 0.66649747 0.51107013 4294967293
-0.21390955 0.67693472 0.51749879 4294967293
-0.2143553 0.68036103 0.51957798 4294967293
-0.21094464 0.67741507 0.51808703 4294967293
-0.20767149 0.66745067 0.51223421 4294967293
-0.20583652 0.66948956 0.5136767 4294967293
-0.20900097 0.68296611 0.52171594 4294967293
-0.00039332666 0.68252122 0.54043335 4294967293
-8.9137044e-05 0.66208887 0.5278368 4294967293
0.0023172891 0.65857637 0.52586621 4294967293
-0.001243416 0.6373803 0.58283746 1
0.0028052349 0.65855354 0.5258925 4294967293
0.0012202889 0.63563752 0.58179992 1
0.0070888982 0.66299051 0.49485537 4294967291
0.0053331731 0.66353661 0.52917945 4294967293
0.0034988043 0.66420835 0.56513727 4294967295
0.0015084073 0.61938375 0.57013923 1
0.0074978201 0.65949517 0.49289438 4294967291
0.0056105596 0.65161079 0.52183527 4294967293
0.0039767437 0.66252071 0.56405193 4294967295
0.0040604644 0.62737316 0.57610673 1
0.0099676633 0.662844 0.49500206 4294967291
0.0079542371 0.64808744 0.5198518 4294967293
0.0064259893 0.65906769 0.56195611 4294967295
0.0046886229 0.6354602 0.58197606 1
0.0084727183 0.64976192 0.5209288 4294967293
0.0065344949 0.63909489 0.54864001 4294967295
0.0070653739 0.63045967 0.57858908 1
0.01274997 0.65921903 0.49315587 4294967291
0.010969859 0.65303081 0.52315331 4294967293
0.0088115968 0.63231599 0.54431045 4294967295
0.0075226673 0.62881023 0.5774433 1
0.012980846 0.6505174 0.48821056 4294967291
0.011632187 0.65980184 0.52739048 4294967293
0.0092931092 0.63228929 0.54433346 4294967295
0.0098147094 0.6221832 0.57287967 1
0.015449258 0.65385264 0.4903087 4294967291
0.013926468 0.65456533 0.52434361 4294967293
0.012018366 0.64378285 0.55223262 4294967295
0.010217585 0.61891127 0.57056266 1
0.016035695 0.65729427 0.4923183 4294967291
0.014206259 0.64774072 0.52015054 4294967293
0.012694192 0.65039998 0.5567047 4294967295
0.012826175 0.62525237 0.57535064 1
0.018540915 0.66062051 0.49441335 4294967291
0.01672508 0.65099448 0.5223664 4294967293
0.014903509 0.64194685 0.55125201 4294967295
0.013314575 0.6252225 0.57537204 1
0.019082624 0.66232538 0.49542853 4294967291
0.01714986 0.64926624 0.5213334 4294967293
0.01501729 0.63028991 0.54348439 4294967295
0.015865229 0.62831151 0.57781696 1
0.021342987 0.6587075 0.49354219 4294967291
0.019752344 0.65421009 0.52459967 4294967293
0.017893115 0.64342469 0.55249095 4294967295
0.016022643 0.61855459 0.57081592 1
0.021890432 0.6604107 0.4945567 4294967291
0.019976435 0.64738613 0.52040231 4294967293
0.017717374 0.62512696 0.54026812 4294967295
0.018195713 0.61191386 0.56623262 1
0.0243586 0.6619873 0.4956491 4294967291
0.02166904 0.63025033 0.5099538 4294967293
0.021028899 0.64821351 0.555951 4294967295
0.019049753 0.62160468 0.57327497 1
0.024838185 0.66195518 0.49566817 4294967291
0.022427367 0.63700992 0.51419133 4294967293
0.020442851 0.62161857 0.53815776 4294967295
0.021333741 0.62144852 0.57336372 1
0.026762163 0.65486938 0.49177566 4294967291
0.025275998 0.65043682 0.52271718 4294967293
0.022380775 0.61482716 0.53379035 4294967295
0.021681439 0.61817467 0.57104057 1
0.026818871 0.64617199 0.48681828 4294967291
0.025759017 0.65040314 0.52273548 4294967293
0.023813082 0.63637018 0.54828441 4294967295
0.02409387 0.61475301 0.568793 1
0.029843677 0.65638947 0.49288175 4294967291
0.02797872 0.64343333 0.51860911 4294967293
0.025901018 0.62623185 0.54169643 4294967295
0.024422253 0.61147898 0.56646806 1
0.030228753 0.65462244 0.49190339 4294967291
0.028284656 0.64000499 0.51651573 4294967293
0.027192293 0.64278853 0.55285186 4294967295
0.026981032 0.61453956 0.56889397 1
0.030848466 0.6432212 0.51870948 4294967293
0.028331554 0.61772639 0.53622657 4294967295
0.02762894 0.61774111 0.57125288 1
0.033077575 0.65441048 0.49200216 4294967291
0.031606127 0.64827383 0.52189207 4294967293
0.029068364 0.62266648 0.5395847 4294967295
0.030149002 0.62063634 0.57384759 1
0.035380486 0.65409452 0.49226195 4294967291
0.034336809 0.65472913 0.52637577 4294967293
0.031559937 0.62565297 0.54206508 4294967295
0.030093752 0.61088943 0.56683111 1
0.035855189 0.65405732 0.49227712 4294967291
0.03412367 0.64282286 0.51899809 4294967293
0.032513026 0.63390446 0.54765409 4294967295
0.032487359 0.61069822 0.56690502 1
0.038890854 0.66425115 0.49832928 4294967291
0.036620066 0.64432687 0.52012831 4294967293
0.035434276 0.64199799 0.55330348 4294967295
0.033451617 0.61874706 0.57278031 1
0.037206184 0.64598274 0.52119899 4294967293
0.034902874 0.62538588 0.54216832 4294967295
0.035728458 0.61855876 0.57284623 1
0.041401554 0.66056478 0.49641579 4294967291
0.039913151 0.65257382 0.52549052 4294967293
0.036717039 0.61857307 0.53777272 4294967295
0.035901692 0.61366701 0.56934261 1
0.041644454 0.65706462 0.49443582 4294967291
0.040851958 0.65931034 0.52973032 4294967293
0.03740716 0.62184668 0.54001629 4294967295
0.038087014 0.61022836 0.56706238 1
0.044276286 0.66031963 0.49649385 4294967291
0.042703431 0.65063184 0.52451277 4294967293
0.040240355 0.62826842 0.54454172 4294967295
0.038676199 0.61180323 0.56824744 1
0.045005463 0.66373664 0.49850008 4294967291
0.042946331 0.64720225 0.52241176 4294967293
0.040488798 0.62491453 0.54232347 4294967295
0.042588342 0.63259798 0.58355272 1
0.045857836 0.65376246 0.52669954 4294967293
0.043482315 0.63298136 0.54796052 4294967295
0.042377222 0.6228587 0.57652801 1
0.047761399 0.66175187 0.49757466 4294967291
0.04672581 0.6587981 0.52988195 4294967293
0.043597676 0.62797165 0.54462558 4294967295
0.044321686 0.61617512 0.57189262 1
0.049305663 0.66026747 0.53099531 4294967293
0.046380319 0.63271755 0.54802763 4294967295
0.045178346 0.62097579 0.57542193 1
0.050086174 0.65457594 0.49365157 4294967291
0.049393244 0.65514445 0.52783483 4294967293
0.047640316 0.64260173 0.55473226 4294967295
0.051407646 0.64983934 0.52471423 4294967293
0.052455958 0.65656048 0.52895284 4294967293
0.056072406 0.66271043 0.49874336 4294967291
0.056553356 0.66266304 0.49875203 4294967291
-0.10139 0.58168787 0.43955815 4294967291
-0.1019842 0.58864647 0.4434838 4294967291
-0.09547326 0.58539486 0.41286927 4294967289
-0.10084099 0.59572566 0.44764319 4294967291
-0.094816044 0.58365721 0.41201788 4294967289
-0.098924644 0.58535969 0.44189319 4294967291
-0.095100634 0.60146046 0.42137083 4294967289
-0.094623126 0.56990534 0.43345708 4294967291
-0.09303192 0.58912259 0.41507161 4294967289
-0.093967497 0.56819934 0.43254283 4294967291
-0.090482675 0.58572263 0.41352782 4294967289
-0.094244644 0.58566588 0.44250992 4294967291
-0.10014259 0.59962231 0.48116401 4294967293
-0.089155428 0.57868069 0.40994653 4294967289
-0.093585394 0.58395904 0.44159541 4294967291
-0.099936634 0.60134798 0.48225138 4294967293
8.3643681e-05 0.68008864 0.54030401 4294967293
0.00037102858 0.65967309 0.52767974 4294967293
0.0048118751 0.66939247 0.4995822 4294967291
0.0028164473 0.65955967 0.52781403 4294967293
0.00094832882 0.66358614 0.5658778 4294967295
-0.00087603001 0.62848222 0.57784855 1
0.0050873337 0.65722632 0.49264389 4294967291
0.0032556814 0.65613812 0.52573097 4294967293
0.0015157654 0.62349725 0.57446617 1
0.0075045428 0.6588434 0.49376521 4294967291
0.0055665728 0.64922303 0.52163953 4294967293
0.0040471666 0.66842133 0.56937903 4294967295
0.0019372845 0.61860865 0.57097894 1
0.0080555817 0.66228801 0.49578062 4294967291
0.0060168044 0.64749992 0.5206095 4294967293
0.0043657632 0.65676844 0.5616098 4294967295
0.0044397251 0.62334555 0.5746156 1
0.008609836 0.65586674 0.52600908 4294967293
0.0068276776 0.65497768 0.56062299 4294967295
0.0051582451 0.63628697 0.58400953 1
0.010846707 0.65866923 0.4939355 4294967291
0.009018898 0.65244389 0.52392244 4294967293
0.0067832693 0.62838024 0.54282361 4294967295
-0.069252588 0.70745599 0.6289643 1
-0.048115451 0.59589422 0.42340565 4294967289
-0.049773633 0.57831407 0.44295964 4294967291
-0.053049434 0.58398831 0.476329 4294967293
-0.068420395 0.7461375 0.61526352 4294967295
-0.069490373 0.71720737 0.63597578 1
-0.046375342 0.57465106 0.412366 4294967289
-0.049811747 0.58526808 0.44693759 4294967291
-0.052854188 0.5873968 0.47845912 4294967293
-0.068363242 0.75279969 0.61972785 4294967295
-0.067351997 0.72535807 0.64203984 1
-0.044427127 0.57644397 0.4134846 4294967289
-0.047021121 0.57486767 0.44123068 4294967291
-0.051579099 0.60103339 0.48702466 4294967293
-0.064345777 0.73619115 0.60896313 4294967295
-0.044529323 0.5853017 0.41814327 4294967289
-0.04649289 0.5731343 0.44028509 4294967291
-0.051358309 0.60444081 0.48915628 4294967293
-0.04253928 0.58708912 0.41926169 4294967289
-0.044910163 0.58183748 0.44540736 4294967291
-0.048139069 0.58914369 0.47995719 4294967293
-0.042120673 0.5870918 0.41930008 4294967289
-0.044384159 0.58010298 0.44446075 4294967291
-0.047699381 0.58914655 0.47999758 4294967293
-0.040387891 0.59418577 0.42319098 4294967289
-0.043125194 0.59574962 0.45352876 4294967291
-0.039697718 0.58887476 0.42045319 4294967289
-0.042879757 0.59922594 0.45554036 4294967291
-0.037931185 0.59596282 0.42434293 4294967289
-0.050739262 0.73210847 0.56834608 4294967293
-0.22726521 0.69322962 0.52770227 4294967293
-0.21845517 0.67195839 0.51535094 4294967293
-0.21458861 0.66035503 0.50851965 4294967293
-0.21407886 0.66743898 0.51297593 4294967293
-0.21691935 0.67921311 0.5200156 4294967293
-0.21458802 0.67959458 0.52048433 4294967293
-0.21127729 0.66964561 0.51462638 4294967293
-0.20790192 0.66669399 0.51312566 4294967293
-0.20787661 0.66844428 0.51421636 4294967293
-0.20817183 0.67887074 0.52066964 4294967293
-0.2126871 0.69735909 0.53171772 4294967293
0.0071882484 0.61982584 0.57254571 1
0.012999491 0.65323496 0.49120227 4294967291
0.011702988 0.66578478 0.53262699 4294967293
0.0091593806 0.63145632 0.5453018 4294967295
0.0077088652 0.62141877 0.57374102 1
0.01372594 0.66187537 0.49620685 4294967291
0.011877364 0.65387261 0.52525765 4294967293
0.0098034926 0.63806939 0.54978383 4294967295
0.010305207 0.62775785 0.5785442 1
0.016068162 0.66000336 0.49532339 4294967291
0.013996486 0.6435473 0.51903343 4294967293
0.012466289 0.64622718 0.55547333 4294967295
0.010710686 0.62448889 0.57622248 1
0.016661562 0.66344088 0.49733877 4294967291
0.014580145 0.64691365 0.52116853 4294967293
0.012862932 0.64287871 0.55326605 4294967295
0.013249438 0.62757957 0.57867771 1
0.018686352 0.65289879 0.49146581 4294967291
0.017217737 0.65355551 0.52550417 4294967293
0.014990121 0.63277406 0.5466848 4294967295
0.013640956 0.62431002 0.57635432 1
0.019031471 0.64940411 0.48949277 4294967291
0.017822212 0.65691918 0.52763921 4294967293
0.015745582 0.64104015 0.55228281 4294967295
0.015826087 0.62092584 0.57410806 1
0.021457074 0.65445983 0.49258021 4294967291
0.019659907 0.64489722 0.52033907 4294967293
0.018280903 0.64752972 0.55684435 4294967295
0.016312083 0.62089425 0.57412863 1
0.022286855 0.66308987 0.49758661 4294967291
0.019941164 0.63977647 0.51718801 4294967293
0.018161941 0.63090962 0.54570895 4294967295
0.019012401 0.62396026 0.57658088 1
0.024911797 0.66465229 0.4986892 4294967291
0.022753576 0.64639318 0.52152145 4294967293
0.021049686 0.63903201 0.55139351 4294967295
0.019627659 0.62716424 0.57894671 1
0.025080685 0.65769273 0.49471828 4294967291
0.023527948 0.65314472 0.52577037 4294967293
0.020783301 0.6207574 0.5391379 4294967295
0.021657461 0.62053162 0.57434398 1
0.026737854 0.64541799 0.48782179 4294967291
0.025651248 0.64959514 0.52374458 4294967293
0.023678137 0.63552421 0.54927057 4294967295
0.022143343 0.62049717 0.57436252 1
0.027291773 0.64711612 0.48883763 4294967291
0.025894172 0.64447427 0.52059013 4294967293
0.023637097 0.62388498 0.54147583 4294967295
0.02411717 0.61061567 0.56741154 1
0.030005263 0.65386963 0.49291739 4294967291
0.027690882 0.63243514 0.51327443 4294967293
0.026505427 0.63365763 0.54826307 4294967295
0.024904303 0.61705095 0.57212347 1
0.028336145 0.63579059 0.51540732 4294967293
0.026332403 0.62036324 0.53934908 4294967295
0.027653098 0.62333822 0.57690406 1
0.033048991 0.65711713 0.49501494 4294967291
0.031353507 0.64747524 0.5228976 4294967293
0.028879091 0.62349916 0.54166603 4294967295
0.027973125 0.62006676 0.5745731 1
0.033131279 0.6501599 0.49103799 4294967291
0.032586496 0.66099495 0.5313794 4294967293
0.02980068 0.63174683 0.54726577 4294967295
0.030222053 0.6166442 0.57230574 1
0.035806619 0.65516514 0.49411216 4294967291
0.034243435 0.64725077 0.52299428 4294967293
0.031548135 0.61996436 0.53952789 4294967295
0.030705411 0.61660588 0.57232136 1
0.036599293 0.66031635 0.49712318 4294967291
0.034422461 0.64213061 0.5198347 4294967293
0.033365905 0.64311469 0.55518001 4294967295
0.033896185 0.62933916 0.5817911 1
0.039218288 0.66358107 0.49919555 4294967291
0.037239544 0.64871162 0.5241437 4294967293
0.035003081 0.62967008 0.5463199 4294967295
0.033409409 0.61313891 0.57006294 1
0.0394747 0.66008329 0.49721259 4294967291
0.037937846 0.65205884 0.52627558 4294967293
0.035072301 0.6230076 0.54186589 4294967295
0.035606522 0.60970664 0.56778431 1
0.041515525 0.65469694 0.49428591 4294967291
0.040589817 0.65524179 0.52846408 4294967293
0.037344977 0.62115312 0.54081827 4294967295
0.036189962 0.61128134 0.56897241 1
0.041752227 0.65119946 0.49230143 4294967291
0.040732801 0.65012175 0.52530146 4294967293
0.038259596 0.62773329 0.54530114 4294967295
0.039141688 0.61914825 0.57491118 1
0.042669211 0.643143 0.52113158 4294967293
0.040773604 0.62918031 0.54648399 4294967295
0.040074445 0.62556463 0.57962269 1
0.04572957 0.66650426 0.50137085 4294967291
0.043635011 0.64986986 0.52538013 4294967293
0.040787034 0.62251979 0.54202652 4294967295
-0.076520756 0.57550973 0.41007802 4294967289
-0.079574831 0.57217854 0.43677804 4294967291
-0.085668936 0.59321922 0.4791773 4294967293
-0.07630311 0.57729727 0.41104183 4294967289
-0.07876125 0.56872874 0.43487716 4294967291
-0.085431211 0.59493899 0.48026559 4294967293
-0.07480675 0.58269644 0.4140324 4294967289
-0.075916275 0.56188363 0.43121967 4294967291
-0.082822412 0.59164125 0.47845727 4294967293
-0.074577481 0.58448315 0.41499668 4294967289
-0.075505719 0.56190169 0.43126813 4294967291
-0.082578748 0.59336001 0.47954535 4294967293
-0.071778305 0.57749689 0.41157618 4294967289
-0.074194513 0.56893021 0.43541646 4294967291
-0.079797797 0.58835536 0.47669357 4294967293
-0.070116296 0.56513202 0.40521079 4294967289
-0.07433223 0.57415318 0.43839604 4294967291
-0.078790151 0.58327448 0.47363377 4294967293
-0.068617344 0.57051939 0.40819344 4294967289
-0.07205949 0.57250094 0.43765923 4294967291
-0.077352069 0.59016043 0.47803417 4294967293
-0.068897367 0.57761145 0.4119077 4294967289
-0.070222273 0.55863243 0.42988354 4294967291
-0.077278309 0.59357709 0.4801597 4294967293
-0.098468505 0.74867815 0.61438298 4294967295
-0.099215768 0.73924404 0.64935464 1
-0.067336954 0.58299518 0.41489318 4294967289
-0.068694256 0.56391507 0.43305022 4294967291
-0.074183136 0.58515781 0.47521773 4294967293
-0.094937705 0.74213171 0.61031222 4294967295
-0.098089904 0.73439604 0.64595574 1
-0.066591971 0.57947117 0.41310424 4294967289
-0.068793707 0.56913704 0.43603244 4294967291
-0.073219031 0.58007276 0.47215122 4294967293
-0.09474431 0.74547631 0.61256844 4294967295
-0.094909407 0.73124588 0.64395916 1
-0.064208761 0.57600218 0.41149679 4294967289
-0.067374535 0.57615173 0.4401806 4294967291
-0.071565472 0.58524734 0.47550884 4294967293
-0.091427296 0.74058312 0.60958546 4294967295
-0.093809955 0.72639525 0.64055622 1
-0.064272009 0.58132428 0.41429743 4294967289
-0.066626966 0.57269335 0.43826792 4294967291
-0.0719743 0.59376359 0.48075306 4294967293
-0.090001263 0.73228765 0.60415775 4294967295
-0.090497874 0.72161257 0.63739389 1
-0.06265752 0.58669794 0.41728061 4294967289
-0.063431524 0.56060457 0.43163517 4294967291
-0.06976331 0.59383225 0.48099414 4294967293
-0.087761238 0.73736155 0.6077522 4294967295
-0.088909052 0.71188998 0.63051975 1
-0.062693104 0.59201968 0.42008346 4294967289
-0.063178144 0.56235307 0.43265975 4294967291
-0.068510503 0.58534223 0.47584191 4294967293
-0.087877862 0.74402964 0.61220598 4294967295
-0.086335108 0.7135905 0.63196927 1
-0.059423737 0.5779193 0.41295001 4294967289
-0.061574508 0.56762022 0.43582228 4294967291
-0.06695307 0.59220684 0.48023793 4294967293
-0.084768064 0.74078196 0.61030596 4294967295
-0.086116523 0.71685189 0.63434035 1
-0.058146209 0.56731039 0.40747383 4294967289
-0.061609078 0.57284069 0.4388091 4294967291
-0.066667005 0.59391946 0.48132548 4294967293
-0.08469408 0.74578607 0.61366248 4294967295
-0.083517507 0.71854514 0.63578707 1
-0.056812078 0.57621229 0.41228956 4294967289
-0.058797263 0.56421047 0.43412089 4294967291
-0.06430532 0.59227443 0.48051643 4294967293
-0.080354854 0.72922415 0.60295719 4294967295
-0.082647681 0.71531117 0.6335302 1
-0.056675643 0.5797624 0.41417369 4294967289
-0.057955995 0.55901045 0.4312188 4294967291
-0.064605199 0.6007899 0.48576963 4294967293
-0.079961121 0.73090047 0.60411412 4294967295
-0.078978211 0.70563084 0.62686735 1
-0.054871507 0.58334929 0.41622922 4294967289
-0.05645835 0.56600326 0.43535861 4294967291
-0.06179931 0.59403545 0.48183167 4294967293
-0.07810501 0.7409423 0.61099994 4294967295
-0.078737341 0.7088896 0.62923855 1
-0.054325234 0.58158761 0.4153502 4294967289
-0.056316387 0.56948543 0.43736556 4294967291
-0.06022615 0.58043551 0.47353941 4294967293
-0.077403098 0.73929054 0.60995591 4294967295
-0.076589003 0.71543795 0.63414806 1
-0.052126914 0.57985765 0.41463763 4294967289
-0.054495547 0.57299984 0.4395417 4294967291
-0.057787843 0.57707524 0.47167271 4294967293
-0.074912846 0.74267155 0.61243832 4294967295
-0.076182626 0.71707183 0.63536179 1
-0.051836837 0.58163553 0.41560104 4294967289
-0.05407694 0.57300746 0.4395836 4294967291
-0.058162931 0.58729076 0.47797313 4294967293
-0.072960638 0.72604591 0.60148001 4294967295
-0.073144317 0.71386981 0.63331676 1
-0.049527086 0.57812893 0.41396105 4294967289
-0.051367242 0.56435704 0.43487245 4294967291
-0.056486424 0.5941326 0.48236373 4294967293
-0.070502102 0.72941852 0.60395378 4294967295
-0.072456814 0.71225417 0.63221139 1
-0.049814466 0.58875847 0.41953811 4294967289
-0.051076427 0.56610042 0.43589669 4294967291
-0.055406347 0.58563232 0.47718933 4294967293
-0.071015336 0.74273628 0.61282408 4294967295
0.042864148 0.63018125 0.5832178 1
0.047607262 0.65937227 0.4974438 4294967291
0.046168454 0.65133893 0.52650934 4294967293
0.043522984 0.62726229 0.5454483 4294967295
0.042645011 0.62045145 0.5761804 1
0.047686279 0.65414685 0.49445736 4294967291
0.047039006 0.65636975 0.52969867 4294967293
0.044126265 0.62887257 0.54657769 4294967295
0.0450771 0.62022686 0.57623696 1
0.050063327 0.65392745 0.49451271 4294967291
0.048538946 0.64430672 0.52234018 4294967293
0.047177151 0.63691753 0.55222291 4294967295
0.046443429 0.63147593 0.58447331 1
0.05095936 0.6590628 0.49752185 4294967291
0.048612285 0.63918883 0.51917291 4294967293
0.052831922 0.66093749 0.53299659 4294967293
0.053979028 0.66051453 0.49858212 4294967291
0.054178286 0.67103189 0.5393635 4294967293
0.056378048 0.66027915 0.49862832 4294967291
0.057165928 0.66368204 0.5006367 4294967291
-0.10697399 0.60720265 0.45427483 4294967291
-0.1027426 0.5935089 0.44682965 4294967291
-0.098347925 0.59379691 0.41762453 4294967289
-0.10205894 0.59180772 0.44591984 4294967291
-0.096000053 0.5921762 0.41700101 4294967289
-0.098921627 0.58502787 0.44233316 4294967291
-0.096059896 0.59573543 0.41887444 4294967289
-0.096282475 0.56946898 0.43366516 4294967291
-0.093477853 0.59234273 0.41733736 4294967289
-0.09516824 0.57653475 0.43782243 4294967291
-0.092824169 0.59060383 0.41648352 4294967289
-0.095226735 0.58002663 0.43981868 4294967291
-0.10242781 0.60253835 0.48344204 4294967293
-0.090272024 0.58720309 0.41493821 4294967289
-0.094983116 0.59402132 0.44786447 4294967291
-0.09995237 0.60098183 0.48270446 4294967293
-0.089175731 0.58192962 0.41226155 4294967289
-0.091300592 0.56978822 0.4343228 4294967291
-0.087988816 0.58912045 0.41617298 4294967289
-0.088770546 0.56644636 0.43264699 4294967291
-0.088887237 0.59974563 0.42169392 4294967289
-0.08903335 0.57167023 0.4356164 4294967291
-0.097982548 0.60965705 0.48826754 4294967293
-0.085049495 0.58573014 0.41466883 4294967289
-0.087608457 0.57698977 0.43879989 4294967291
-0.094370209 0.59959853 0.48235905 4294967293
-0.084633067 0.58575332 0.41472134 4294967289
-0.087188192 0.57701313 0.43885291 4294967291
-0.094372742 0.6030193 0.48448086 4294967293
-0.081639141 0.57702208 0.41040248 4294967289
-0.084360339 0.57018459 0.43520531 4294967291
-0.092049226 0.60143507 0.48371074 4294967293
-0.081846595 0.58234632 0.41319224 4294967289
-0.083520696 0.56673849 0.4333092 4294967291
-0.09225475 0.60655361 0.48686707 4294967293
-0.080576159 0.58952391 0.4171018 4294967289
-0.081864923 0.57031327 0.43551305 4294967291
-0.088732995 0.59647745 0.4809384 4294967293
-0.078563184 0.5754019 0.40984303 4294967289
-0.081448928 0.57033402 0.43556383 4294967291
-0.087657884 0.59140354 0.47788921 4294967293
-0.096836753 0.73106372 0.64689976 1
-0.066423424 0.58544791 0.41845211 4294967289
-0.068318218 0.57145041 0.43962777 4294967291
-0.075162113 0.60598171 0.49050447 4294967293
-0.094922192 0.75547117 0.62241411 4294967295
-0.095543049 0.72460371 0.64232683 1
-0.064876556 0.573093 0.41203836 4294967289
-0.068568245 0.57839751 0.44360954 4294967291
-0.092401244 0.73723441 0.61035675 4294967295
-0.092751913 0.72469282 0.64263535 1
-0.0628286 0.57315844 0.41226473 4294967289
-0.065004073 0.56286365 0.43498325 4294967291
-0.088945515 0.73068357 0.60625261 4294967295
-0.091666184 0.71985 0.63921732 1
-0.063500069 0.58554131 0.41877523 4294967289
-0.063471176 0.55074167 0.42813662 4294967291
-0.088396445 0.73070031 0.60631275 4294967295
-0.088551499 0.71669036 0.63719773 1
-0.061411325 0.58560193 0.41900182 4294967289
-0.063301511 0.57160455 0.44017801 4294967291
-0.086145654 0.73576003 0.60992044 4294967295
-0.086985618 0.70698482 0.63029444 1
-0.060993511 0.58561349 0.41904676 4294967289
-0.062423807 0.56641495 0.43726709 4294967291
-0.085920617 0.73909539 0.61218667 4294967295
-0.084745653 0.71191704 0.63406825 1
-0.058195058 0.57683039 0.41464412 4294967289
-0.061381686 0.57860625 0.44438928 4294967291
-0.083303198 0.7408281 0.61358613 4294967295
-0.084358186 0.71355093 0.6352874 1
-0.058204878 0.58214331 0.41746303 4294967289
-0.060666244 0.57514888 0.44246185 4294967291
-0.082589984 0.73918164 0.61254072 4294967295
-0.081448935 0.71199453 0.63441318 1
-0.056126416 0.58219159 0.41768011 4294967289
-0.057017405 0.55612367 0.43182868 4294967291
-0.079511523 0.73592556 0.61062127 4294967295
-0.080434442 0.70714509 0.63098431 1
-0.055576887 0.58043295 0.41679728 4294967289
-0.057027373 0.56133467 0.43483111 4294967291
-0.079258412 0.73925835 0.61288822 4294967295
-0.077568501 0.70395643 0.62892246 1
-0.053628013 0.58047277 0.41699705 4294967289
-0.055628713 0.5683108 0.43897858 4294967291
-0.077515125 0.74927461 0.61978817 4294967295
-0.077914946 0.71369046 0.63595325 1
-0.052577142 0.57164133 0.41240647 4294967289
-0.055478025 0.57178712 0.44099569 4294967291
-0.076235943 0.74098283 0.61431766 4294967295
-0.075303018 0.71535975 0.6373933 1
-0.05053208 0.57167745 0.41261205 4294967289
-0.05338509 0.57182407 0.4412061 4294967291
-0.072489507 0.72940773 0.6068548 4294967295
-0.074185111 0.70888579 0.6327951 1
-0.050845064 0.58229202 0.41821614 4294967289
-0.052337188 0.56315935 0.43630719 4294967291
-0.071804434 0.72775596 0.60580319 4294967295
-0.07131163 0.70730537 0.63190103 1
-0.049452588 0.59293109 0.42398778 4294967289
-0.050752919 0.57012737 0.44046533 4294967291
-0.070111588 0.74108207 0.61492723 4294967295
-0.07089965 0.70893347 0.63311827 1
-0.048348971 0.58232826 0.41846162 4294967289
-0.050573196 0.57360172 0.44248363 4294967291
-0.069813631 0.74441093 0.61719531 4294967295
-0.069190852 0.72193319 0.64269871 1
-0.046160746 0.58058476 0.41773394 4294967289
-0.048586652 0.57536107 0.44367561 4294967291
-0.066522568 0.73780096 0.61303532 4294967295
-0.06914404 0.72842264 0.64741045 1
-0.046385039 0.59119815 0.42334497 4294967289
-0.048053507 0.57363105 0.44272637 4294967291
-0.067193039 0.75441486 0.62416404 4294967295
-0.044376116 0.59298533 0.4244734 4294967289
-0.045740854 0.57018089 0.44094482 4294967291
-0.043654025 0.58768386 0.42172533 4294967289
-0.045323081 0.57018399 0.44098383 4294967291
-0.041555367 0.58769673 0.42191941 4294967289
-0.04382991 0.5806042 0.4471209 4294967291
-0.055088479 0.71862018 0.56256986 4294967293
-0.040857345 0.58239383 0.41916826 4294967289
-0.04458306 0.60142118 0.45904884 4294967291
-0.055594202 0.73561043 0.57312274 4294967293
-0.038775526 0.58240062 0.41935658 4294967289
-0.042574469 0.60489756 0.46122983 4294967291
-0.053673409 0.74920958 0.58177495 4294967293
-0.0019943491 0.67671913 0.50638217 4294967291
0.00034703867 0.66622275 0.50052565 4294967291
0.0014223846 0.67316216 0.53942811 4294967293
0.0037297613 0.66606897 0.50071663 4294967291
0.0018150629 0.66465986 0.53415525 4294967293
-0.00012537577 0.66841239 0.57246274 4294967295
2.1943017e-05 0.63301337 0.5846554 1
0.0060174097 0.65902686 0.49684525 4294967291
0.0042834994 0.66454047 0.5342896 4294967293
0.0023935421 0.666632 0.57148224 4294967295
0.00040774758 0.62328279 0.57762599 1
0.0065293014 0.66073424 0.49787158 4294967291
0.0046072868 0.65434325 0.52795303 4294967293
0.0028073527 0.65997654 0.56703371 4294967295
0.0028982488 0.62639242 0.58010668 1
0.0088108471 0.65541846 0.49499407 4294967291
0.0068703219 0.64574289 0.5227766 4294967293
0.0051737735 0.65156156 0.56156933 4294967295
0.0034647333 0.63121843 0.5836609 1
0.0094480133 0.66231704 0.49902317 4294967291
0.007351235 0.64571756 0.52280134 4294967293
0.0056098155 0.64822108 0.55935633 4294967295
0.0059980466 0.63431865 0.58613873 1
0.011760423 0.65872586 0.49714154 4294967291
0.010125295 0.66084051 0.53247297 4294967293
0.0076121348 0.62654793 0.54492652 4294967295
0.0063658194 0.62782359 0.5814566 1
0.012097499 0.65350759 0.49416068 4294967291
0.010574387 0.65911853 0.53143603 4294967293
0.0082402127 0.63314861 0.5494287 4294967295
0.0087113241 0.62283373 0.57804471 1
0.014366996 0.649912 0.49227217 4294967291
0.01292906 0.65559018 0.5294317 4294967293
0.010831228 0.63963675 0.55402541 4294967295
0.0091214124 0.61957222 0.57571387 1
0.015056122 0.65680486 0.49630189 4294967291
0.013121828 0.64539582 0.52308553 4294967293
0.011363821 0.64126474 0.55516857 4294967295
0.011551728 0.61942685 0.57582664 1
0.017562632 0.66012174 0.49841687 4294967291
0.015745876 0.65202785 0.52744436 4294967293
0.013761545 0.63946217 0.55416191 4294967295
0.012222239 0.62586135 0.58055806 1
0.017798157 0.65317339 0.49443001 4294967291
0.016119076 0.64861035 0.5253427 4294967293
0.013840692 0.62618423 0.54522181 4294967295
0.014571714 0.6224761 0.5783118 1
0.019638691 0.63918966 0.48651618 4294967291
0.018658478 0.65184605 0.52757424 4294967293
0.016634669 0.63762361 0.55317199 4294967295
0.014741575 0.61275095 0.57126713 1
0.020512212 0.64953554 0.49255121 4294967291
0.018891579 0.64504099 0.5233466 4294967293
0.017354274 0.64421457 0.55767548 4294967295
0.01738376 0.61905426 0.57608074 1
0.02287543 0.64938056 0.49265134 4294967291
0.021226458 0.64319038 0.52238607 4294967293
0.019110126 0.62584639 0.54545051 4294967295
0.017989779 0.62225205 0.5784567 1
0.024097029 0.6666373 0.50269848 4294967291
0.021635996 0.64146525 0.52134347 4294967293
0.019328834 0.61919391 0.54098684 4294967295
0.020195968 0.61882252 0.57623804 1
0.026174618 0.66125846 0.49982932 4294967291
0.024380345 0.65142757 0.5278576 4294967293
0.0220943 0.63058341 0.54897028 4294967295
0.020657567 0.61879027 0.57625622 1
0.025897445 0.6456719 0.49081907 4294967291
0.024994738 0.65478027 0.53000146 4294967293
0.022122225 0.62062401 0.54226077 4294967295
0.022821039 0.61539763 0.57398808 1
0.028131029 0.64551306 0.49090511 4294967291
0.026817724 0.64446312 0.52371228 4294967293
0.025384601 0.64196771 0.55692703 4294967295
0.02328038 0.61536431 0.57400531 1
0.029018307 0.65411979 0.49593884 4294967291
0.026691355 0.632586 0.51628768 4294967293
0.025223847 0.62870109 0.54797232 4294967295
0.025867023 0.61517286 0.57409966 1
0.03213039 0.66429567 0.5020535 4294967291
0.029487507 0.63747352 0.51956993 4294967293
0.027544459 0.6235497 0.54470104 4294967295
0.026648723 0.62159276 0.57883132 1
0.032016709 0.65389723 0.49604782 4294967291
0.030754797 0.65266258 0.52915633 4294967293
0.027912585 0.62186188 0.54359531 4294967295
0.028622519 0.61496168 0.57419521 1
0.033873577 0.64681602 0.4921104 4294967291
0.032968644 0.65079397 0.52817243 4294967293
0.030813809 0.63325989 0.55152726 4294967295
0.028558444 0.6052469 0.56713617 1
0.034729153 0.65368819 0.49614099 4294967291
0.032749277 0.63892126 0.52074271 4294967293
0.031366371 0.63487691 0.55266476 4294967295
0.031293932 0.60826898 0.56957752 1
0.037599154 0.65866405 0.4992359 4294967291
0.035611127 0.64378911 0.52401698 4294967293
0.033866186 0.63301712 0.55162686 4294967295
0.032315761 0.61790735 0.57666767 1
0.038163666 0.66035318 0.50025427 4294967291
0.036067497 0.64375204 0.52403134 4294967293
0.03412731 0.62967479 0.54939681 4294967295
0.035069007 0.62254077 0.58028066 1
0.040819533 0.66360414 0.50233674 4294967291
0.039155148 0.65369076 0.53048921 4294967293
0.036140282 0.62286556 0.54498118 4294967295
0.035026215 0.61444181 0.57439679 1
0.040464718 0.65148616 0.4953199 4294967291
0.039840866 0.65703142 0.53263092 4294967293
0.03627431 0.61787182 0.54162717 4294967295
0.037214298 0.61263406 0.57328242 1
0.04284016 0.65301865 0.49638855 4294967291
0.041932285 0.65345395 0.53056872 4294967293
0.039085388 0.62593639 0.54730433 4294967295
0.037239872 0.60614878 0.56857622 1
0.043537498 0.65642953 0.49841002 4294967291
0.041805055 0.64496762 0.52526027 4294967293
0.039541055 0.62589687 0.54731691 4294967295
0.040561561 0.61882299 0.57807893 1
0.046979383 0.67001289 0.50651133 4294967291
0.044731192 0.65150779 0.5295822 4294967293
0.041487209 0.61907977 0.54288983 4294967295
0.041828915 0.6300571 0.5863499 1
0.046793625 0.66134912 0.50149965 4294967291
0.045942515 0.66159809 0.53598052 4294967293
0.04265875 0.62894344 0.54963827 4294967295
0.043117721 0.61372674 0.57461077 1
0.048817214 0.65595573 0.49854457 4294967291
0.047646414 0.65124273 0.52965415 4294967293
0.045091949 0.62872165 0.54969788 4294967295
0.04345452 0.61207414 0.57344151 1
0.049544252 0.65936136 0.50056499 4294967291
0.047844145 0.64782399 0.52753574 4294967293
0.046057675 0.63527954 0.55420065 4294967295
0.052534524 0.66776365 0.50564128 4294967291
0.049590979 0.64085841 0.52332866 4294967293
0.052995916 0.66771966 0.50565124 4294967291
0.050876711 0.65093917 0.52972686 4294967293
0.05514589 0.66230017 0.50268912 4294967291
0.056205705 0.66914511 0.50671864 4294967291
0.058350727 0.665456 0.50475341 4294967291
-0.10435268 0.59346616 0.44983432 4294967291
-0.10015775 0.595662 0.4214901 4294967289
-0.10289562 0.58658636 0.44599581 4294967291
-0.097563587 0.59217358 0.42010593 4294967289
-0.10077453 0.58661568 0.44644141 4294967291
-0.096411884 0.58691728 0.41741785 4294967289
-0.099099867 0.57800555 0.44161999 4294967291
-0.09527301 0.59410399 0.42136383 4294967289
-0.096015982 0.57123274 0.43799818 4294967291
-0.093903929 0.58708316 0.41775629 4294967289
-0.095356099 0.5695315 0.43707719 4294967291
-0.092736684 0.59426552 0.42170173 4294967289
-0.09374845 0.57312083 0.43930939 4294967291
-0.09001632 0.57666683 0.41258794 4294967289
-0.094743907 0.58351898 0.44523117 4294967291
-0.089303084 0.58736837 0.41836375 4294967289
-0.091695987 0.57673168 0.441596 4294967291
-0.089107536 0.58915603 0.41933602 4294967289
-0.089444451 0.56292355 0.43382141 4294967291
-0.087352604 0.5910331 0.42050904 4294967289
-0.087731317 0.5647648 0.43505067 4294967291
-0.086066201 0.58400369 0.41688818 4294967289
-0.087762572 0.56824702 0.43706256 4294967291
-0.083984159 0.58411795 0.41715267 4294967289
-0.086766951 0.57701015 0.44222775 4294967291
-0.081891567 0.57003087 0.40984857 4294967289
-0.085053258 0.56665337 0.4363986 4294967291
-0.081484787 0.58424836 0.41746548 4294967289
-0.082560703 0.56330085 0.4346956 4294967291
-0.080460191 0.57897735 0.41475585 4294967289
-0.082565211 0.566782 0.43670914 4294967291
-0.07839366 0.57907879 0.41500998 4294967289
-0.080896556 0.57034487 0.43892807 4294967291
-0.07758873 0.57556981 0.41321787 4294967289
-0.080882512 0.5738259 0.44094315 4294967291
-0.07515277 0.57213551 0.41162255 4294967289
-0.078588784 0.57219189 0.4402141 4294967291
-0.075877242 0.58274174 0.4172042 4294967289
-0.076612785 0.5583635 0.43240088 4294967291
-0.073431358 0.57930189 0.4156059 4294967289
-0.074565865 0.55845213 0.43264431 4294967291
-0.072835647 0.57755423 0.41473174 4294967289
-0.075095341 0.56712508 0.43761125 4294967291
-0.083083071 0.60672385 0.49147949 4294967293
-0.069714777 0.5670464 0.40943137 4294967289
-0.073565029 0.57240331 0.44080722 4294967291
-0.08082284 0.6068151 0.49174365 4294967293
-0.069834426 0.57235789 0.41224951 4294967289
-0.072422691 0.5654937 0.43691751 4294967291
-0.06863495 0.58126187 0.41710645 4294967289
-0.070351325 0.56557131 0.43715537 4294967291
-0.0786516 0.61200476 0.49519017 4294967293
-0.068051554 0.57951128 0.41622916 4294967289
-0.069589034 0.56212282 0.43523189 4294967291
-0.078016393 0.6103254 0.4941971 4294967293
-0.096167184 0.73960745 0.61317718 4294967295
-0.23078041 0.69740427 0.5342598 4294967293
-0.22336663 0.68119186 0.52482599 4294967293
-0.21898408 0.66795814 0.51695669 4294967293
-0.21332078 0.65668321 0.51044673 4294967293
-0.214276 0.66176027 0.5135389 4294967293
-0.2142151 0.67049158 0.51902807 4294967293
-0.21466832 0.67390513 0.52112603 4294967293
-0.21033163 0.66763133 0.51762205 4294967293
-0.20623028 0.67994696 0.48995107 4294967291
-0.20984195 0.66770935 0.51772016 4294967293
-0.20785257 0.6697647 0.51920992 4294967293
-0.20919673 0.67651755 0.52331501 4294967293
-0.20087728 0.68078351 0.49101207 4294967291
-0.21034281 0.69026041 0.53182811 4294967293
0.032326017 0.61475515 0.57712692 1
0.038751241 0.66590375 0.50604653 4294967291
0.036201026 0.64234668 0.52574402 4294967293
0.03404649 0.62490439 0.54881829 4294967295
0.032714386 0.61310607 0.57595849 1
0.03890352 0.66069371 0.50303543 4294967291
0.037105676 0.64905679 0.53003252 4294967293
0.033919532 0.61496878 0.54207307 4294967295
0.035232324 0.61451256 0.57721519 1
0.040727459 0.65187752 0.49806342 4294967291
0.040089697 0.65728843 0.53544843 4294967293
0.036497314 0.6180687 0.54439819 4294967295
0.035510648 0.61125392 0.57486159 1
0.041203093 0.65183705 0.4980773 4294967291
0.040354352 0.65387303 0.53332561 4294967293
0.036864299 0.6163795 0.54328519 4294967295
0.037811708 0.60943717 0.57374555 1
0.044446204 0.66368741 0.50520813 4294967291
0.041845556 0.64017105 0.52484441 4294967293
0.039802954 0.6244157 0.54898721 4294967295
0.038952198 0.61904335 0.58086276 1
0.045179319 0.66708934 0.50723964 4294967291
0.042684462 0.64518756 0.52806377 4294967293
0.039707419 0.61613268 0.54336476 4294967295
0.041359656 0.62044615 0.58210701 1
0.047072485 0.66172004 0.50427157 4294967291
0.045453556 0.65172774 0.53239882 4294967293
0.042295557 0.62087667 0.54680485 4294967295
0.041731872 0.61879426 0.58093512 1
0.047029566 0.65478981 0.50024647 4294967291
0.046826471 0.66348296 0.53989375 4294967293
0.043016016 0.62412846 0.54907137 4294967295
0.04368034 0.61214167 0.57625681 1
0.049692318 0.65801167 0.50232321 4294967291
0.048110805 0.64808899 0.53033191 4294967293
0.045413338 0.62390757 0.54912949 4294967295
0.045027778 0.62334448 0.58455861 1
0.050448783 0.66140878 0.50435334 4294967291
0.048461918 0.64635867 0.52927411 4294967293
0.047692858 0.64691961 0.56492466 4294967295
0.053435963 0.66806138 0.50844538 4294967291
0.05087892 0.64612883 0.52932769 4294967293
0.05406791 0.66973472 0.50946534 4294967291
0.055903558 0.66261685 0.50547552 4294967291
0.056386758 0.66256887 0.50548482 4294967291
0.059433907 0.66920155 0.50956821 4294967291
-0.080334015 0.70341498 0.63217056 1
-0.055839498 0.58256632 0.42059836 4294967289
-0.057316847 0.56333977 0.43868822 4294967291
-0.07914272 0.73554885 0.61424088 4294967295
-0.079327658 0.69857633 0.62872475 1
-0.054760344 0.57375157 0.4159821 4294967289
-0.057731327 0.57373291 0.44468713 4294967291
-0.078737289 0.73721701 0.6154089 4294967295
-0.077508263 0.70832866 0.63601094 1
-0.052324172 0.56849682 0.41339573 4294967289
-0.055495083 0.57204241 0.44390988 4294967291
-0.075674385 0.73395663 0.61347175 4294967295
-0.077106602 0.70995516 0.63723487 1
-0.052418593 0.57556319 0.4171676 4294967289
-0.055206522 0.57378078 0.44494593 4294967291
-0.074128658 0.72236866 0.60574937 4294967295
-0.074357845 0.70999998 0.63751149 1
-0.050595906 0.5791266 0.41924152 4294967289
-0.052224454 0.56169808 0.43819997 4294967291
-0.071811073 0.72738397 0.6093592 4294967295
-0.072688609 0.6970734 0.62821549 1
-0.050181091 0.57913274 0.41928285 4294967289
-0.051935796 0.56343532 0.43923524 4294967291
-0.071262412 0.7273922 0.60941386 4294967295
-0.0703879 0.70196044 0.63199031 1
-0.047655106 0.57210082 0.41575202 4294967289
-0.050220735 0.56865638 0.44242334 4294967291
-0.069164082 0.73571414 0.61524689 4294967295
-0.070242681 0.70681787 0.63555205 1
-0.047356565 0.57387066 0.41672602 4294967289
-0.050389614 0.57731688 0.44743788 4294967291
-0.067714162 0.72412151 0.60751277 4294967295
-0.069030486 0.72625083 0.6498577 1
-0.045723114 0.58095258 0.42066288 4294967289
-0.048049539 0.57387692 0.44565174 4294967291
-0.065714158 0.73409289 0.6144557 4294967295
-0.045936197 0.59154677 0.42631051 4294967289
-0.047186911 0.56695604 0.44171026 4294967291
-0.043721598 0.58979791 0.42557538 4294967289
-0.045208648 0.56870335 0.44290325 4294967291
-0.058030348 0.72349668 0.56896621 4294967293
-0.042809736 0.58097506 0.42093843 4294967289
-0.045411564 0.57909328 0.44891879 4294967291
-0.058367379 0.73706192 0.57746136 4294967293
-0.040912773 0.58451539 0.42300272 4294967289
-0.043971609 0.59122229 0.45609161 4294967291
-0.055654217 0.73707491 0.57771242 4294967293
-0.040494148 0.58451676 0.42304102 4294967289
-0.043731797 0.59468627 0.4581247 4294967291
-0.055213384 0.73877203 0.57881844 4294967293
-0.039083421 0.59864211 0.43072212 4294967289
-0.041918747 0.60161549 0.46231061 4294967291
-0.039328907 0.61276358 0.4382529 4294967289
-0.086762398 0.59015685 0.42185965 4294967289
-0.08871612 0.57594776 0.4432247 4294967291
-0.085912183 0.58665723 0.42006811 4294967289
-0.088735908 0.57942593 0.44524556 4294967291
-0.08319179 0.5814845 0.41756377 4294967289
-0.085328482 0.56917286 0.43960962 4294967291
-0.081945285 0.57445914 0.41392171 4294967289
-0.084484249 0.56573892 0.43769348 4294967291
-0.080699131 0.58161151 0.41787577 4294967289
-0.081371203 0.55720347 0.43302742 4294967291
-0.079279006 0.5728215 0.41330501 4294967289
-0.08240959 0.56932098 0.43997452 4294967291
-0.076448783 0.56587011 0.40985644 4294967289
-0.080725916 0.57287776 0.44220281 4294967291
-0.10508133 0.74251479 0.576841 4294967293
-0.077207662 0.57646346 0.41545767 4294967289
-0.080706149 0.57635427 0.44422606 4294967291
-0.075145967 0.57655615 0.41570699 4294967289
-0.076461203 0.55743247 0.43362707 4294967291
-0.074733555 0.57657415 0.41575646 4294967289
-0.076244861 0.55917919 0.43466306 4294967291
-0.072852552 0.5784238 0.41692844 4294967289
-0.075502701 0.57136905 0.44182003 4294967291
-0.071357056 0.56786251 0.41141558 4294967289
-0.075456172 0.57484424 0.44384474 4294967291
-0.0689734 0.56441569 0.40979812 4294967289
-0.072088622 0.56282133 0.4371722 4294967291
-0.069262408 0.57148415 0.41355598 4294967289
-0.071317188 0.55937821 0.4352431 4294967291
-0.069227993 0.59272045 0.42493185 4294967289
-0.069089562 0.5577231 0.43448979 4294967291
-0.097081557 0.7482146 0.62144434 4294967295
-0.098616973 0.72547609 0.6469 1
-0.067139417 0.57509977 0.41569465 4294967289
-0.069024354 0.56119668 0.43651503 4294967291
-0.096702054 0.74988973 0.62261546 4294967295
-0.09545029 0.72233838 0.64488667 1
-0.064276569 0.56634992 0.41128096 4294967289
-0.067962833 0.57164448 0.44268706 4294967291
-0.092464298 0.73673809 0.61407143 4294967295
-0.095798373 0.7304346 0.65077305 1
-0.064668775 0.57518166 0.41597289 4294967289
-0.066551536 0.56127864 0.43679348 4294967291
-0.091733456 0.73510009 0.61302561 4294967295
-0.091574557 0.71759391 0.6417619 1
-0.062609315 0.57524455 0.416201 4294967289
-0.063851833 0.55442137 0.43305901 4294967291
-0.089135759 0.73684049 0.61444068 4294967295
-0.089625217 0.70468295 0.6324982 1
-0.06265568 0.58054841 0.41903642 4294967289
-0.064077944 0.5613535 0.43706706 4294967291
-0.088919371 0.74016857 0.61671889 4294967295
-0.086559713 0.70152628 0.63046253 1
-0.059990231 0.57354927 0.41553947 4294967289
-0.062626831 0.56833148 0.44125709 4294967291
-0.086133115 0.74024558 0.61702186 4294967295
-0.087020494 0.71123695 0.637519 1
-0.059433416 0.57179588 0.41465297 4294967289
-0.062361322 0.57007259 0.44229358 4294967291
-0.085088901 0.73529166 0.61375368 4294967295
-0.084591299 0.7145375 0.64014655 1
-0.057944801 0.57890379 0.41859731 4294967289
-0.059832677 0.56493318 0.43954015 4294967291
-0.081536636 0.72707874 0.60849911 4294967295
-0.08339671 0.70808548 0.63553673 1
-0.057669319 0.58067781 0.41957268 4294967289
-0.059128549 0.56148195 0.43759933 4294967291
-0.081299096 0.73040408 0.61077732 4294967295
-0.2113045 0.68695551 0.49557763 4294967291
-0.21356468 0.669478 0.52060211 4294967293
-0.21078843 0.68703854 0.49568224 4294967291
-0.21304852 0.66956109 0.52070671 4294967293
-0.2063726 0.68064189 0.49242306 4294967291
-0.20581862 0.65331334 0.51118392 4294967293
-0.20586078 0.68072265 0.49252567 4294967291
-0.20809549 0.66338956 0.51731253 4294967293
-0.20811953 0.67207873 0.52279294 4294967293
-0.20353198 0.68285966 0.49402604 4294967291
-0.2089729 0.67716032 0.5259133 4294967293
-0.20200144 0.68663913 0.49639902 4294967291
0.0038595914 0.66769361 0.50515622 4294967291
0.001940164 0.66778338 0.53977406 4294967293
-0.00013122534 0.66136009 0.5715214 4294967295
-0.0018366411 0.64388472 0.59630299 1
0.0040666461 0.6503914 0.49511516 4294967291
0.0023688604 0.66268384 0.53660244 4294967293
0.00039124396 0.66298956 0.57267404 4294967295
0.00046515535 0.62439972 0.58225787 1
0.0066718441 0.66236734 0.50229383 4294967291
0.0046655037 0.65241241 0.53033662 4294967293
0.0029205724 0.66286439 0.5728116 4294967295
0.00095592981 0.62437475 0.58228403 1
0.0072582397 0.66752541 0.50534105 4294967291
0.005033127 0.6456216 0.52609563 4294967293
0.0034097487 0.6242463 0.5824126 1
0.0097263167 0.6691255 0.50647563 4294967291
0.0074078357 0.64380425 0.52515483 4294967293
0.0056504668 0.64617527 0.56171781 4294967295
0.0040866937 0.63551033 0.59071386 1
0.0099209314 0.65700918 0.49944797 4294967291
0.0080723297 0.65223402 0.53051502 4294967293
0.0057645459 0.62631243 0.54823864 4294967295
0.0062893988 0.62085921 0.5801962 1
0.011981157 0.64478904 0.49251369 4294967291
0.010675718 0.65886301 0.53490722 4294967293
0.0083159562 0.63279063 0.55286229 4294967295
0.0067106858 0.61760658 0.57785505 1
0.012548904 0.64821601 0.49455267 4294967291
0.011123328 0.65714437 0.53386402 4294967293
0.0088781621 0.6360684 0.55513763 4294967295
0.009219747 0.62068969 0.5803383 1
0.015075877 0.65325809 0.49769142 4294967291
0.01327708 0.64685965 0.52757603 4294967293
0.011403186 0.63923156 0.55750746 4294967295
0.0097891577 0.62388492 0.58272743 1
0.015718831 0.65840888 0.50073856 4294967291
0.013760221 0.64683086 0.52759892 4294967293
0.01198392 0.64250696 0.5597828 4294967295
0.012242521 0.62373543 0.58284104 1
0.017871525 0.6513586 0.49681574 4294967291
0.016288674 0.65006369 0.52984697 4294967293
0.013877673 0.62418634 0.54750699 4294967295
0.012448295 0.61403471 0.57576352 1
0.018221468 0.64787716 0.49482024 4294967291
0.017004402 0.656793 0.53414136 4294967293
0.01456697 0.63076371 0.55203426 4294967295
0.014760088 0.61065781 0.57350361 1
0.020721363 0.65117747 0.49694249 4294967291
0.019074349 0.64649945 0.52783972 4294967293
0.017277123 0.63886666 0.55777466 4294967295
0.015459173 0.61707139 0.57825887 1
0.021335227 0.65459746 0.49898073 4294967291
0.01942835 0.64308894 0.52572376 4294967293
0.017468968 0.63057786 0.55216235 4294967295
0.017743109 0.61691928 0.57835555 1
0.023503343 0.65272301 0.49806663 4294967291
0.021407833 0.63618201 0.52154481 4294967293
0.020131826 0.64033252 0.55902016 4294967295
0.018351123 0.62010783 0.58074337 1
0.023827309 0.64924049 0.49606809 4294967291
0.022168418 0.64290589 0.52583939 4294967293
0.019299775 0.60728073 0.53650093 4294967295
0.020658482 0.61671776 0.57847375 1
0.026032254 0.64562684 0.49414504 4294967291
0.024956357 0.65118223 0.53128105 4294967293
0.022427676 0.6252743 0.5489946 4294967295
0.020872314 0.61024195 0.57375622 1
0.026752561 0.65076721 0.49719176 4294967291
0.025052385 0.64270502 0.52595526 4294967293
0.022688473 0.62028897 0.54563171 4294967295
0.023278285 0.61006814 0.57384849 1
0.029215388 0.65231991 0.49829245 4294967291
0.027036073 0.63409084 0.52070147 4294967293
0.025150143 0.62176692 0.54685056 4294967295
0.023909373 0.61325234 0.57623529 1
0.030500496 0.66780168 0.50739717 4294967291
0.027595883 0.63574386 0.52178842 4294967293
0.026188141 0.63328123 0.55476105 4294967295
0.026326614 0.61307079 0.57632315 1
0.032262225 0.65555346 0.50041646 4294967291
0.030247897 0.64062798 0.52508324 4294967293
0.027329342 0.60835636 0.53793335 4294967295
0.026646182 0.60981518 0.57397079 1
0.032159373 0.64517534 0.4943738 4294967291
0.031095149 0.64734131 0.52937812 4294967293
0.028580695 0.62316513 0.54809976 4294967295
0.028876042 0.60640997 0.57168359 1
0.035233743 0.65705347 0.5015254 4294967291
0.033808168 0.65221387 0.53267026 4294967293
0.031623974 0.63452125 0.55607778 4294967295
0.029176995 0.60315442 0.56932968 1
0.03571301 0.65701544 0.50154138 4294967291
0.033306327 0.6353054 0.52198917 4294967293
0.032016836 0.63283372 0.55496597 4294967295
